# This PCD file was generated using the MATLAB® pcwrite function
# from Computer Vision Toolbox®.
# .PCD v.7 - Point Cloud Data file format
VERSION .7
FIELDS x y z
SIZE 4 4 4
TYPE F F F
COUNT 1 1 1
WIDTH 1713
HEIGHT 1
VIEWPOINT 0 0 0 1 0 0 0
POINTS 1713
DATA ascii
-5.093538 2.966237 1.106610
-5.100658 3.012439 1.111984
-5.094740 3.051259 1.114672
-5.086014 3.088588 1.116821
-5.080373 3.127988 1.119688
-5.070266 3.164830 1.121658
-5.072370 3.209554 1.126316
-5.059206 3.244865 1.127749
-5.063125 3.291392 1.132944
-5.065019 3.337007 1.137781
-5.059177 3.377853 1.141006
-5.052210 3.418201 1.144051
-5.044127 3.458035 1.146918
-5.044633 3.504070 1.151755
-5.047177 3.551939 1.157129
-5.042113 3.594831 1.160891
-5.043890 3.642978 1.166265
-5.039707 3.687216 1.170386
-5.039123 3.734467 1.175402
-5.034213 3.778897 1.179522
-5.029730 3.824003 1.183822
-5.027221 3.870995 1.188659
-5.025877 3.919309 1.193854
-5.021039 3.965313 1.198333
-5.015824 4.011405 1.202811
-5.016350 4.062535 1.208723
-5.012632 4.110702 1.213739
-5.016081 4.165260 1.220547
-5.007751 4.210519 1.224667
-5.001302 4.257744 1.229325
-4.998932 4.308902 1.235057
-4.990192 4.355016 1.239357
-4.983285 4.403138 1.244194
-4.978175 4.453307 1.249568
-4.966072 4.497634 1.253330
-4.978271 4.564583 1.263183
-4.970362 4.613780 1.268199
-4.964188 4.665073 1.273753
-4.958282 4.717141 1.279486
-4.948381 4.765899 1.284323
-4.938772 4.815400 1.289339
-4.938544 4.874635 1.296863
-4.934991 4.931266 1.303670
-4.933003 4.990136 1.311015
-4.929102 5.047757 1.318002
-4.937659 5.118969 1.328392
-4.928556 5.172671 1.334304
-4.917630 5.225021 1.339858
-4.915627 5.287516 1.347919
-4.915703 5.353080 1.356697
-4.901936 5.404272 1.361893
-4.882473 5.449633 1.365655
-4.841769 5.471385 1.363684
-4.784146 5.473587 1.357056
-4.721535 5.469331 1.348994
-4.648304 5.451790 1.337887
-4.588145 5.448606 1.330363
-4.518133 5.432789 1.319972
-4.465352 5.436845 1.314419
-4.411452 5.438930 1.308507
-4.351544 5.432881 1.300804
-4.296761 5.432476 1.294534
-4.215497 5.397492 1.280381
-4.170881 5.408456 1.276978
-4.119733 5.410468 1.271603
-4.063396 5.404979 1.264616
-4.011973 5.405323 1.259063
-3.961282 5.406034 1.253689
-3.899199 5.390387 1.244731
-3.848895 5.390193 1.239357
-3.791371 5.379134 1.231654
-3.733005 5.365958 1.223592
-3.681628 5.362001 1.217680
-3.629889 5.356802 1.211589
-3.576711 5.348719 1.204961
-3.544367 5.371385 1.205140
-3.479125 5.343570 1.194391
-3.429784 5.339159 1.188838
-3.392744 5.353456 1.187405
-3.358789 5.372505 1.187046
-3.296833 5.346124 1.177014
-0.189355 0.313439 0.099991
-0.187428 0.314595 0.099991
-0.187499 0.319126 0.100707
-0.185041 0.319421 0.100528
-0.000000 0.000000 0.000000
-0.000000 0.000000 0.000000
-0.000000 0.000000 0.000000
-0.000000 0.000000 0.000000
-0.000000 0.000000 0.000000
-0.000000 0.000000 0.000000
-0.000000 0.000000 0.000000
-0.000000 0.000000 0.000000
-0.000000 0.000000 0.000000
-0.000000 0.000000 0.000000
-0.000000 0.000000 0.000000
-0.000000 0.000000 0.000000
-0.000000 0.000000 0.000000
-0.000000 0.000000 0.000000
-0.000000 0.000000 0.000000
-0.000000 0.000000 0.000000
-0.000000 0.000000 0.000000
-0.000000 0.000000 0.000000
-0.000000 0.000000 0.000000
-0.000000 0.000000 0.000000
-0.000000 0.000000 0.000000
-0.000000 0.000000 0.000000
-0.000000 0.000000 0.000000
-0.000000 0.000000 0.000000
-0.000000 0.000000 0.000000
-0.000000 0.000000 0.000000
-0.000000 0.000000 0.000000
-0.000000 0.000000 0.000000
-0.000000 0.000000 0.000000
-0.000000 0.000000 0.000000
-0.000000 0.000000 0.000000
-0.000000 0.000000 0.000000
-0.000000 0.000000 0.000000
-0.000000 0.000000 0.000000
-0.000000 0.000000 0.000000
-0.000000 0.000000 0.000000
-0.000000 0.000000 0.000000
-0.000000 0.000000 0.000000
-0.000000 0.000000 0.000000
-0.000000 0.000000 0.000000
-0.000000 0.000000 0.000000
-0.000000 0.000000 0.000000
-0.000000 0.000000 0.000000
-0.000000 0.000000 0.000000
-0.000000 0.000000 0.000000
-0.000000 0.000000 0.000000
-0.000000 0.000000 0.000000
-0.000000 0.000000 0.000000
-0.000000 0.000000 0.000000
-0.000000 0.000000 0.000000
-0.000000 0.000000 0.000000
-0.000000 0.000000 0.000000
-0.000000 0.000000 0.000000
-0.000000 0.000000 0.000000
-0.068468 0.360740 0.100170
-0.067337 0.366956 0.101245
-0.065958 0.372203 0.102140
-0.065023 0.380355 0.103574
-0.063339 0.384627 0.104290
-0.062232 0.392779 0.105723
-0.059972 0.394125 0.105902
-0.058421 0.400325 0.106977
-0.057075 0.408467 0.108410
-0.057360 0.429281 0.112173
-0.054598 0.428649 0.111993
-0.051603 0.426047 0.111456
-0.048528 0.422447 0.110739
-0.043647 0.402204 0.106977
-0.040869 0.399529 0.106440
-0.037448 0.389982 0.104648
-0.034963 0.389224 0.104469
-0.032149 0.384531 0.103574
-0.029474 0.380798 0.102857
-0.025897 0.364293 0.099811
-0.023394 0.360519 0.099095
-0.021120 0.359674 0.098916
-0.018858 0.358814 0.098737
-0.016559 0.356958 0.098378
-0.014368 0.357053 0.098378
-0.012177 0.357134 0.098378
-0.009955 0.356219 0.098199
-0.007769 0.356273 0.098199
-0.005620 0.358281 0.098557
-0.003447 0.360277 0.098916
-0.001242 0.361275 0.099095
0.000974 0.361276 0.099095
0.003191 0.361263 0.099095
0.005408 0.361237 0.099095
0.007642 0.362180 0.099274
0.009887 0.363110 0.099453
0.012115 0.363043 0.099453
0.014343 0.362961 0.099453
0.016653 0.364832 0.099811
0.018939 0.365706 0.099991
0.021344 0.368530 0.100528
0.023605 0.368392 0.100528
0.026062 0.371185 0.101065
0.028555 0.373962 0.101603
0.031004 0.375741 0.101961
0.033561 0.378485 0.102499
0.036152 0.381211 0.103036
0.038682 0.382940 0.103394
0.041133 0.383674 0.103574
0.043595 0.384392 0.103753
0.046066 0.385095 0.103932
0.048668 0.386758 0.104290
0.051670 0.391330 0.105186
0.054729 0.395881 0.106082
0.058260 0.403330 0.107515
0.061453 0.407832 0.108410
0.064553 0.411336 0.109127
0.067855 0.415790 0.110023
0.070566 0.416336 0.110202
0.074461 0.423650 0.111635
0.078448 0.430933 0.113068
0.081988 0.435280 0.113964
0.084658 0.434768 0.113964
0.087898 0.437136 0.114501
0.091171 0.439480 0.115039
0.094475 0.441800 0.115576
0.097184 0.441212 0.115576
0.100535 0.443487 0.116114
0.103033 0.441903 0.115935
0.105969 0.442220 0.116114
0.109146 0.443474 0.116472
0.111627 0.441841 0.116293
0.114824 0.443054 0.116651
0.117791 0.443292 0.116830
0.120509 0.442561 0.116830
0.123222 0.441813 0.116830
0.125663 0.440102 0.116651
0.128908 0.441213 0.117009
0.132451 0.443244 0.117547
0.134883 0.441481 0.117368
0.138171 0.442525 0.117726
0.141477 0.443545 0.118084
0.144498 0.443605 0.118263
0.148758 0.447381 0.119159
0.151814 0.447393 0.119338
0.155195 0.448314 0.119697
0.158919 0.450139 0.120234
0.161678 0.449155 0.120234
0.164431 0.448154 0.120234
0.167177 0.447137 0.120234
0.171310 0.449784 0.120951
0.174066 0.448724 0.120951
0.177894 0.450395 0.121488
0.181384 0.451123 0.121846
0.190816 0.466407 0.125071
0.197058 0.473410 0.126683
0.198433 0.468564 0.125967
0.202078 0.469147 0.126325
0.206524 0.471506 0.127042
0.211404 0.474729 0.127937
0.215524 0.476114 0.128475
0.219669 0.477467 0.129012
0.222594 0.476110 0.129012
0.227192 0.478293 0.129729
0.230974 0.478664 0.130087
0.233045 0.475469 0.129729
0.236394 0.474912 0.129908
0.239745 0.474332 0.130087
0.245335 0.478110 0.131162
0.253695 0.487078 0.133312
0.257595 0.487253 0.133670
0.260580 0.485663 0.133670
0.265898 0.488381 0.134566
0.272681 0.493637 0.135999
0.276663 0.493673 0.136357
0.279687 0.491966 0.136357
0.281721 0.488534 0.135999
0.277784 0.474893 0.133491
0.280193 0.472332 0.133312
0.283086 0.470604 0.133312
0.000000 0.000000 0.000000
0.000000 0.000000 0.000000
0.000000 0.000000 0.000000
2.958705 4.675757 1.040864
3.053712 4.761044 1.063257
3.101629 4.771091 1.069527
3.142209 4.769224 1.073289
3.184520 4.769494 1.077588
3.220340 4.759643 1.079738
3.253932 4.746286 1.081171
3.293655 4.741586 1.084575
3.334008 4.737381 1.088158
3.372720 4.730454 1.091203
3.421262 4.736791 1.097294
3.465362 4.736356 1.101952
3.506071 4.730814 1.105535
3.550976 4.730460 1.110372
3.597793 4.732081 1.115746
3.642363 4.730186 1.120404
3.679786 4.718611 1.122912
3.721471 4.712160 1.126674
3.765673 4.708447 1.131153
3.804397 4.697487 1.134019
3.851860 4.696881 1.139394
3.913283 4.712523 1.148709
3.968078 4.719301 1.156054
4.007800 4.707601 1.159100
4.056518 4.706026 1.164653
4.085317 4.681047 1.164653
4.126988 4.670639 1.168236
4.160815 4.651095 1.169669
4.210405 4.648816 1.175402
4.318622 4.709925 1.196899
4.378223 4.716512 1.205140
4.426615 4.710353 1.210335
4.479842 4.708767 1.216785
4.533215 4.706705 1.223234
4.564756 4.681619 1.223950
4.634165 4.694840 1.234520
4.687916 4.691375 1.240969
4.730604 4.676357 1.244552
4.791582 4.678866 1.252793
4.833653 4.662357 1.256197
4.880686 4.650259 1.260854
4.949241 4.657990 1.270887
5.025277 4.671753 1.282710
5.079206 4.664124 1.288980
5.138331 4.660637 1.296504
5.200533 4.659225 1.304745
5.255543 4.650703 1.311194
5.305459 4.637148 1.316390
5.370298 4.636014 1.325168
5.424094 4.624682 1.331259
5.473437 4.609061 1.336275
5.571196 4.633276 1.352756
5.617764 4.613994 1.357056
5.680348 4.607331 1.365117
5.745364 4.601918 1.373716
5.814384 4.598933 1.383211
5.855673 4.573466 1.386256
5.857140 4.517019 1.380165
5.862049 4.463707 1.374970
5.856304 4.402818 1.367446
5.846874 4.339823 1.359205
5.851968 4.288162 1.354368
5.845491 4.228527 1.347023
5.851314 4.178284 1.342545
5.842267 4.117924 1.334841
5.831086 4.056709 1.326780
5.812887 3.991332 1.317285
5.810395 3.937372 1.311373
5.817272 3.890159 1.307611
5.822969 3.842468 1.303670
5.815110 3.786262 1.296863
5.810920 3.732958 1.290951
5.812113 3.683536 1.286293
5.808747 3.631631 1.280740
5.805802 3.580425 1.275365
5.794044 3.524277 1.268199
5.790252 3.473471 1.262825
5.787749 3.423848 1.257809
5.787405 3.375874 1.253330
5.773901 3.320675 1.246164
5.772773 3.273049 1.241686
5.770422 3.225083 1.237028
5.759944 3.172996 1.230758
5.752504 3.123038 1.225204
5.751608 3.077004 1.221084
5.754716 3.033395 1.217859
5.755760 2.988956 1.214277
5.762606 2.947757 1.211948
5.728751 2.886216 1.201378
5.736659 2.846200 1.199407
5.723962 2.796258 1.193316
5.724168 2.752979 1.189913
5.722280 2.708961 1.186151
5.729877 2.669642 1.184359
5.728265 2.626230 1.180776
5.706609 2.574036 1.173252
5.703412 2.530590 1.169490
5.716127 2.494366 1.168953
5.753926 2.468948 1.173431
6.103427 2.574760 1.239536
6.171817 2.559127 1.249926
6.267573 2.553893 1.265691
6.368062 2.549408 1.282352
6.445839 2.534780 1.294534
6.554877 2.531347 1.312807
6.645715 2.519692 1.327497
6.749561 2.511823 1.344694
6.854482 2.503111 1.362072
6.961399 2.493868 1.379807
7.080523 2.487647 1.399871
7.182156 2.473967 1.416532
7.304390 2.466058 1.437134
7.414652 2.452723 1.455407
7.510983 2.433575 1.470992
7.604543 2.412444 1.486040
7.762950 2.410394 1.513450
7.933850 2.410209 1.543188
10.739892 3.191233 2.073459
10.353976 3.007501 1.996606
4.225300 1.198530 0.833055
4.205081 1.164957 0.827859
5.604318 1.516031 1.090487
5.622075 1.483877 1.092099
5.633932 1.450089 1.092637
5.634136 1.413336 1.091024
5.619766 1.373130 1.086725
5.613729 1.335204 1.084038
5.612232 1.298514 1.082246
5.606657 1.261029 1.079738
5.599872 1.223450 1.077051
5.597650 1.187024 1.075259
5.598083 1.151267 1.074005
5.596358 1.115164 1.072393
5.595367 1.079312 1.070960
5.592213 1.043153 1.069169
5.586890 1.006724 1.067019
5.591993 0.972256 1.066840
5.592032 0.936949 1.065765
5.589906 0.901365 1.064332
5.587554 0.865842 1.062898
5.583030 0.830092 1.061107
5.548086 0.790124 1.053762
1.891481 0.256762 0.380891
1.890094 0.244771 0.380354
1.889607 0.232927 0.379995
1.888070 0.220983 0.379458
1.886457 0.209067 0.378920
1.884769 0.197179 0.378383
1.880069 0.185029 0.377308
1.884108 0.173762 0.377845
1.883178 0.162029 0.377487
1.881195 0.150234 0.376950
1.881100 0.138615 0.376771
1.878971 0.126870 0.376233
1.877750 0.115217 0.375875
1.876457 0.103583 0.375517
1.872144 0.091823 0.374621
1.872672 0.080334 0.374621
1.870180 0.068732 0.374083
1.870567 0.057256 0.374083
1.846295 0.045160 0.369605
1.846538 0.033830 0.369605
1.835889 0.022361 0.367634
1.862555 0.011273 0.372471
1.864556 -0.000154 0.372829
1.862553 -0.011584 0.372471
1.863430 -0.023024 0.372650
1.863254 -0.034457 0.372650
1.873826 -0.046149 0.374621
1.860724 -0.057260 0.372292
1.856405 -0.068534 0.371575
1.854967 -0.079881 0.371396
1.857390 -0.091405 0.371934
1.847952 -0.102316 0.370321
1.857110 -0.114251 0.372113
1.845576 -0.124920 0.370142
1.854587 -0.136960 0.371934
1.849789 -0.148026 0.371217
1.847865 -0.159289 0.371038
1.843914 -0.170355 0.370501
1.842834 -0.181665 0.370501
1.846577 -0.193479 0.371396
1.839488 -0.204158 0.370321
1.842110 -0.215897 0.371038
1.839774 -0.227076 0.370859
1.837370 -0.238234 0.370680
1.840748 -0.250163 0.371575
1.838205 -0.261315 0.371396
1.837540 -0.272733 0.371575
1.842638 -0.285052 0.372829
1.840855 -0.296352 0.372829
1.837061 -0.307319 0.372471
1.842896 -0.319926 0.373904
1.837025 -0.330534 0.373188
1.833995 -0.341620 0.373009
1.832830 -0.353052 0.373188
1.826769 -0.363526 0.372471
1.823540 -0.374530 0.372292
1.821208 -0.385712 0.372292
1.816884 -0.396461 0.371934
1.815378 -0.407817 0.372113
1.812841 -0.418948 0.372113
1.810236 -0.430064 0.372113
1.812343 -0.442327 0.373009
1.809595 -0.453439 0.373009
1.804873 -0.464045 0.372650
1.798185 -0.474110 0.371934
1.792393 -0.484366 0.371396
1.788439 -0.495093 0.371217
1.780634 -0.504719 0.370321
1.880513 -0.545446 0.389848
0.000000 -0.000000 0.000000
2.962185 -0.898029 0.596941
2.958499 -0.916769 0.597299
2.956570 -0.936091 0.598015
2.955451 -0.955727 0.598911
2.957941 -0.976616 0.600524
2.958420 -0.996944 0.601778
2.958760 -1.017314 0.603032
2.955248 -1.036426 0.603569
2.948833 -1.054539 0.603569
2.894236 -1.055109 0.594253
0.000000 -0.000000 0.000000
0.000000 -0.000000 0.000000
0.000000 -0.000000 0.000000
0.000000 -0.000000 0.000000
2.757262 -1.102169 0.574010
2.773233 -1.128327 0.578489
2.771713 -1.147578 0.579563
2.767339 -1.165708 0.580101
2.875905 -1.232218 0.603032
2.933239 -1.278113 0.615930
2.929839 -1.298078 0.616826
2.918231 -1.314416 0.616109
2.792012 -1.278282 0.592462
2.689548 -1.251433 0.573473
2.743201 -1.296902 0.585834
2.717451 -1.305198 0.582251
2.703201 -1.318830 0.580997
2.700348 -1.338010 0.582072
2.695604 -1.356322 0.582788
2.691612 -1.375072 0.583684
2.685745 -1.392920 0.584221
2.682372 -1.412121 0.585296
2.678864 -1.431332 0.586371
2.675221 -1.450554 0.587446
2.670581 -1.469312 0.588342
2.664093 -1.487108 0.588879
2.666050 -1.509724 0.591208
2.655883 -1.525565 0.591029
2.647323 -1.542327 0.591208
2.642893 -1.561543 0.592283
0.000000 -0.000000 0.000000
2.636146 -1.601515 0.594970
2.634649 -1.622816 0.596761
2.626311 -1.639993 0.597120
2.617030 -1.656603 0.597299
0.000000 -0.000000 0.000000
2.891014 -1.879964 0.661254
2.890927 -1.905243 0.663762
2.886547 -1.927861 0.665374
2.876294 -1.946638 0.665733
2.869164 -1.967587 0.666807
2.353575 -1.635586 0.555200
2.341081 -1.648298 0.554662
2.686647 -1.916147 0.634203
2.873456 -2.075992 0.678810
2.867811 -2.098811 0.680422
2.861994 -2.121639 0.682035
2.857578 -2.145655 0.684005
2.851408 -2.168506 0.685618
2.844286 -2.190762 0.687051
2.837774 -2.213616 0.688663
2.831860 -2.237083 0.690455
2.824227 -2.259331 0.691888
2.815664 -2.280951 0.693142
2.807702 -2.303174 0.694575
2.802601 -2.327899 0.696725
2.789018 -2.345685 0.696904
2.777569 -2.365304 0.697620
2.771948 -2.390009 0.699770
2.760196 -2.409559 0.700487
2.770430 -2.448595 0.706578
2.757554 -2.467515 0.707115
2.754760 -2.495614 0.710161
2.744472 -2.517123 0.711415
2.737630 -2.541945 0.713564
2.718396 -2.555327 0.712669
2.706943 -2.576027 0.713744
2.710221 -2.611012 0.718581
2.694854 -2.628279 0.718760
2.686380 -2.652366 0.720730
2.683279 -2.682009 0.724134
2.664005 -2.695625 0.723417
2.635728 -2.699956 0.720372
2.608182 -2.704750 0.717506
2.573889 -2.702187 0.712848
2.539051 -2.698588 0.708011
2.523785 -2.715558 0.708369
2.495095 -2.717951 0.705145
0.000000 -0.000000 0.000000
0.000000 -0.000000 0.000000
0.000000 -0.000000 0.000000
2.310432 -2.644307 0.672719
2.265228 -2.624927 0.664658
2.245887 -2.635034 0.663762
2.264537 -2.690149 0.673615
0.000000 -0.000000 0.000000
2.298180 -2.799073 0.692784
0.000000 -0.000000 0.000000
0.444601 -0.556765 0.163050
0.446671 -0.566426 0.164662
0.452878 -0.581560 0.167529
0.443292 -0.576538 0.165737
2.494649 -3.276998 0.783252
0.453332 -0.604737 0.170932
0.000000 -0.000000 0.000000
0.458091 -0.626918 0.174694
0.453082 -0.628123 0.174336
0.428061 -0.601270 0.167708
0.430033 -0.611926 0.169499
0.422898 -0.609708 0.168424
0.423605 -0.618779 0.169857
0.419801 -0.621366 0.169857
0.422545 -0.633743 0.172007
0.419732 -0.637966 0.172365
0.420105 -0.647125 0.173799
0.415595 -0.648862 0.173619
0.410025 -0.648908 0.173082
0.405514 -0.650577 0.172903
0.400482 -0.651378 0.172545
0.394943 -0.651302 0.172007
0.388408 -0.649495 0.171111
0.385418 -0.653560 0.171470
0.347682 -0.598131 0.159288
0.338118 -0.590020 0.157138
0.335947 -0.594651 0.157676
0.328931 -0.590690 0.156421
0.322926 -0.588389 0.155526
0.319780 -0.591224 0.155705
0.312432 -0.586236 0.154272
0.306076 -0.582920 0.153197
0.298411 -0.576930 0.151585
0.293969 -0.576998 0.151226
0.290866 -0.579670 0.151405
0.287304 -0.581444 0.151405
0.283731 -0.583196 0.151405
0.280147 -0.584926 0.151405
0.276553 -0.586634 0.151405
0.272116 -0.586536 0.151047
0.266051 -0.582829 0.149972
0.263280 -0.586244 0.150331
0.258081 -0.584252 0.149614
0.252129 -0.580414 0.148539
0.247011 -0.578334 0.147822
0.241545 -0.575307 0.146927
0.236502 -0.573144 0.146210
0.230752 -0.569118 0.145135
0.225427 -0.565956 0.144240
0.220509 -0.563667 0.143523
0.215983 -0.562256 0.142986
0.212180 -0.562651 0.142806
0.210097 -0.567630 0.143523
0.208298 -0.573529 0.144419
0.205439 -0.576649 0.144777
0.202549 -0.579755 0.145135
0.198988 -0.580987 0.145135
0.196364 -0.584993 0.145673
0.192771 -0.586187 0.145673
0.189170 -0.587359 0.145673
0.185860 -0.589446 0.145852
0.181948 -0.589636 0.145673
0.178613 -0.591682 0.145852
0.174699 -0.591824 0.145673
0.170515 -0.590995 0.145314
0.166886 -0.592031 0.145314
0.162724 -0.591147 0.144956
0.159094 -0.592135 0.144956
0.154955 -0.591197 0.144598
0.151325 -0.592137 0.144598
0.147688 -0.593054 0.144598
0.143346 -0.591082 0.144060
0.139944 -0.592908 0.144240
0.135859 -0.591838 0.143881
0.132441 -0.593621 0.144060
0.128586 -0.593461 0.143881
0.124534 -0.592314 0.143523
0.121294 -0.594994 0.143881
0.117833 -0.596692 0.144060
0.114543 -0.599336 0.144419
0.112128 -0.606797 0.145673
0.108926 -0.610378 0.146210
0.106191 -0.616851 0.147285
0.103381 -0.623312 0.148360
0.100025 -0.626849 0.148897
0.096629 -0.630367 0.149435
0.093194 -0.633867 0.149972
0.089859 -0.638323 0.150689
0.086472 -0.642762 0.151405
0.082654 -0.644256 0.151585
0.080151 -0.656467 0.153734
0.076581 -0.660855 0.154451
0.075685 -0.689668 0.159646
0.070731 -0.683270 0.158392
0.066925 -0.687607 0.159109
0.060522 -0.664495 0.154809
0.056783 -0.668774 0.155526
0.053310 -0.676955 0.156959
0.048426 -0.667458 0.155167
0.044865 -0.675595 0.156601
0.040353 -0.669966 0.155526
0.037339 -0.689847 0.159109
0.031982 -0.667463 0.154988
0.028143 -0.673544 0.156063
0.023606 -0.662890 0.154093
0.019538 -0.663022 0.154093
0.015568 -0.667063 0.154809
0.011530 -0.670097 0.155347
0.007431 -0.671139 0.155526
0.003352 -0.677075 0.156601
-0.000803 -0.676099 0.156421
-0.004962 -0.678049 0.156780
-0.009088 -0.675054 0.156242
-0.013265 -0.676953 0.156601
-0.017347 -0.673908 0.156063
-0.020652 -0.646255 0.151047
-0.025331 -0.665779 0.154630
-0.028831 -0.651850 0.152122
-0.032114 -0.636921 0.149435
-0.034570 -0.610189 0.144598
-0.000000 -0.000000 0.000000
-0.000000 -0.000000 0.000000
-0.560668 -7.641682 1.428535
-0.608948 -7.655751 1.431759
-0.657085 -7.665594 1.434267
-0.658086 -7.159808 1.342545
-0.766448 -7.813615 1.462931
-0.824262 -7.903683 1.480308
-0.874900 -7.918035 1.483891
-0.929277 -7.962355 1.493027
-0.981473 -7.983844 1.498043
-1.040891 -8.058658 1.512912
-1.103901 -8.152538 1.531364
-1.154593 -8.150482 1.532260
-1.211054 -8.187041 1.540322
-1.268905 -8.229046 1.549458
-1.325760 -8.260933 1.556803
-1.394050 -8.358421 1.576330
-1.452688 -8.392365 1.584212
-1.503634 -8.380388 1.583675
-1.556822 -8.380677 1.585466
-1.609700 -8.378696 1.586899
-1.661654 -8.371557 1.587437
-1.712990 -8.361203 1.587437
-1.765074 -8.354385 1.588153
-1.818603 -8.353973 1.590124
-1.871333 -8.349378 1.591378
-1.923412 -8.341573 1.592095
-1.975920 -8.335358 1.593170
-2.030052 -8.335504 1.595498
-2.083545 -8.332436 1.597290
-2.136832 -8.328071 1.598902
-2.187391 -8.312900 1.598544
-2.242710 -8.315471 1.601589
-2.296047 -8.310087 1.603202
-2.346191 -8.293003 1.602664
-2.401407 -8.293571 1.605531
-2.456999 -8.294718 1.608576
-2.512694 -8.295493 1.611621
-2.565583 -8.286498 1.612876
-2.618456 -8.277166 1.614130
-2.672823 -8.272179 1.616279
-2.730616 -8.277112 1.620400
-2.784804 -8.270458 1.622370
-2.840611 -8.268104 1.625237
-2.895843 -8.263517 1.627745
-2.950132 -8.255784 1.629715
-3.006119 -8.252318 1.632582
-3.062174 -8.248476 1.635448
-3.121775 -8.253458 1.640106
-3.174479 -8.239655 1.641181
-3.230725 -8.234677 1.644047
-3.288852 -8.233886 1.647809
-3.347091 -8.232691 1.651571
-3.399799 -8.217454 1.652646
-3.459314 -8.218202 1.656945
-3.516255 -8.212196 1.659991
-3.577180 -8.214823 1.664828
-3.633093 -8.205314 1.667336
-3.687812 -8.192736 1.669306
-3.747015 -8.189636 1.673248
-3.805489 -8.184335 1.676831
-3.859837 -8.169726 1.678622
-2.565836 -5.344744 1.112880
-2.564100 -5.258150 1.098548
-2.562271 -5.173545 1.084575
-2.558177 -5.086525 1.070064
-2.556243 -5.005888 1.056808
-2.580574 -4.977879 1.054299
-2.552449 -4.850498 1.031369
-2.565485 -4.803500 1.024920
-2.519932 -4.649261 0.996256
-2.546516 -4.630262 0.995540
-2.587338 -4.636890 1.000197
-2.617194 -4.623496 1.000735
-4.665536 -8.127158 1.739711
-4.722244 -8.110282 1.742219
-4.783923 -8.101487 1.746518
-4.849207 -8.098149 1.752072
-4.932498 -8.123750 1.763895
-2.768582 -4.496382 0.994823
-2.811743 -4.504350 1.000197
-2.821974 -4.459574 0.994286
-2.864682 -4.466194 0.999481
-2.914547 -4.483181 1.007005
-2.949576 -4.476716 1.009513
-3.051810 -4.570642 1.034056
-3.114519 -4.603173 1.045342
-3.152716 -4.598584 1.048567
-3.178067 -4.575112 1.047671
-3.163059 -4.494371 1.034056
-3.191719 -4.476480 1.034414
-3.238706 -4.483932 1.040505
-3.269062 -4.467947 1.041401
-3.299343 -4.451756 1.042297
-3.339587 -4.448740 1.046238
-3.376346 -4.440698 1.049104
-3.413131 -4.432372 1.051971
-3.448731 -4.422208 1.054479
-3.486164 -4.414092 1.057524
-3.525469 -4.407987 1.061107
-3.585878 -4.427563 1.070781
-4.256028 -5.189909 1.255480
-4.277110 -5.150828 1.252434
-4.290910 -5.103399 1.247418
-4.311304 -5.064238 1.244373
-4.348718 -5.045142 1.246164
-4.380239 -5.019105 1.246344
-4.407697 -4.988447 1.245448
-4.434944 -4.957641 1.244552
-4.472543 -4.938358 1.246523
-4.070002 -4.438678 1.129899
-4.122590 -4.441026 1.136706
-4.165928 -4.432856 1.141006
-4.294749 -4.514145 1.167878
-4.411073 -4.579843 1.191167
-4.459692 -4.573827 1.196541
-4.501493 -4.560382 1.200124
-4.539819 -4.543117 1.202811
-4.468274 -4.416945 1.177372
-4.505849 -4.399756 1.180060
-4.552584 -4.391154 1.185076
-4.615762 -4.397755 1.194212
-4.674177 -4.399023 1.202095
-4.721253 -4.389019 1.207111
-4.767657 -4.377938 1.211948
-4.821388 -4.373062 1.218576
-4.877436 -4.369661 1.225742
-4.975612 -4.402905 1.243119
-5.017347 -4.385243 1.246702
-5.098516 -4.401315 1.259779
-5.152374 -4.392932 1.266229
-5.208577 -4.385954 1.273215
-5.253542 -4.369013 1.277515
-5.385914 -4.423507 1.302416
-5.700976 -4.624067 1.369954
-5.637877 -4.515795 1.348636
-5.671651 -4.486000 1.350069
-5.708373 -4.458383 1.352219
-5.718484 -4.410053 1.348277
-5.714131 -4.351036 1.341112
-5.708483 -4.291648 1.333767
-5.696004 -4.227803 1.324988
-5.689305 -4.168926 1.317644
-5.690070 -4.116059 1.312090
-5.677593 -4.054191 1.303670
-5.675025 -4.000002 1.297579
-5.669583 -3.944312 1.290951
-5.666917 -3.891068 1.285039
-5.668698 -3.841318 1.280202
-5.665994 -3.788959 1.274469
-5.646441 -3.725937 1.265154
-5.637870 -3.670817 1.258346
-5.635458 -3.620198 1.252972
-5.639286 -3.573962 1.249031
-5.637754 -3.524685 1.244015
-5.625782 -3.469364 1.236849
-5.621751 -3.419437 1.231475
-5.607196 -3.363616 1.223950
-5.606563 -3.316621 1.219472
-5.608963 -3.271744 1.215710
-5.600792 -3.221076 1.209798
-5.590499 -3.169661 1.203528
-5.588375 -3.123295 1.199049
-5.589340 -3.078975 1.195287
-5.589972 -3.034761 1.191525
-5.582465 -2.986477 1.186151
-5.566746 -2.934270 1.179164
-5.555835 -2.885090 1.173252
-5.553289 -2.840637 1.169132
-5.558315 -2.800310 1.166624
-5.565700 -2.761340 1.164653
-5.567512 -2.719794 1.161608
-5.566365 -2.677050 1.158025
-5.551566 -2.628105 1.151755
-5.542620 -2.582354 1.146739
-5.529745 -2.535170 1.141006
-5.531745 -2.495122 1.138319
-5.535261 -2.455944 1.135990
-5.478096 -2.390442 1.121658
-5.348919 -2.295074 1.093174
-5.340240 -2.252647 1.088695
-5.387585 -2.233786 1.095324
-5.491381 -2.237455 1.113059
-5.499527 -2.201524 1.111984
-5.494621 -2.160534 1.108401
-5.491256 -2.120397 1.105177
-5.492205 -2.082127 1.102848
-5.487359 -2.041866 1.099444
-5.475759 -1.999379 1.094786
-5.461066 -1.956117 1.089591
-5.452546 -1.915394 1.085650
-0.000000 -0.000000 0.000000
-0.000000 -0.000000 0.000000
-0.000000 -0.000000 0.000000
-0.000000 -0.000000 0.000000
-0.000000 -0.000000 0.000000
-0.000000 -0.000000 0.000000
-0.000000 -0.000000 0.000000
-0.000000 -0.000000 0.000000
-0.000000 -0.000000 0.000000
-0.000000 -0.000000 0.000000
-0.000000 -0.000000 0.000000
-0.000000 -0.000000 0.000000
-0.000000 -0.000000 0.000000
-0.000000 -0.000000 0.000000
-0.000000 -0.000000 0.000000
-0.000000 -0.000000 0.000000
-0.000000 -0.000000 0.000000
-0.000000 -0.000000 0.000000
-0.000000 -0.000000 0.000000
-0.000000 -0.000000 0.000000
-0.000000 -0.000000 0.000000
-0.000000 -0.000000 0.000000
-0.000000 -0.000000 0.000000
-0.000000 -0.000000 0.000000
-0.000000 -0.000000 0.000000
-0.000000 -0.000000 0.000000
-0.000000 -0.000000 0.000000
-0.000000 -0.000000 0.000000
-0.000000 -0.000000 0.000000
-0.000000 -0.000000 0.000000
-0.000000 -0.000000 0.000000
-0.000000 -0.000000 0.000000
-0.000000 -0.000000 0.000000
-0.000000 -0.000000 0.000000
-0.000000 -0.000000 0.000000
-0.000000 -0.000000 0.000000
-0.000000 -0.000000 0.000000
-0.000000 -0.000000 0.000000
-0.000000 -0.000000 0.000000
-0.000000 -0.000000 0.000000
-0.000000 -0.000000 0.000000
-0.000000 -0.000000 0.000000
-0.000000 -0.000000 0.000000
-0.000000 -0.000000 0.000000
-0.000000 -0.000000 0.000000
-0.000000 -0.000000 0.000000
-0.000000 -0.000000 0.000000
-0.000000 -0.000000 0.000000
-0.000000 -0.000000 0.000000
-0.000000 -0.000000 0.000000
-0.000000 -0.000000 0.000000
-0.000000 -0.000000 0.000000
-0.000000 -0.000000 0.000000
-0.000000 -0.000000 0.000000
-0.000000 -0.000000 0.000000
-0.000000 0.000000 0.000000
-0.000000 0.000000 0.000000
-0.000000 0.000000 0.000000
-0.000000 0.000000 0.000000
-0.000000 0.000000 0.000000
-0.000000 0.000000 0.000000
-0.000000 0.000000 0.000000
-0.000000 0.000000 0.000000
-0.000000 0.000000 0.000000
-0.000000 0.000000 0.000000
-0.000000 0.000000 0.000000
-0.000000 0.000000 0.000000
-0.000000 0.000000 0.000000
-0.000000 0.000000 0.000000
-0.000000 0.000000 0.000000
-0.000000 0.000000 0.000000
-0.000000 0.000000 0.000000
-0.000000 0.000000 0.000000
-0.000000 0.000000 0.000000
-0.000000 0.000000 0.000000
-0.000000 0.000000 0.000000
-0.000000 0.000000 0.000000
-0.000000 0.000000 0.000000
-0.000000 0.000000 0.000000
-0.000000 0.000000 0.000000
-0.000000 0.000000 0.000000
-0.000000 0.000000 0.000000
-0.000000 0.000000 0.000000
-0.000000 0.000000 0.000000
-0.000000 0.000000 0.000000
-0.000000 0.000000 0.000000
-0.000000 0.000000 0.000000
-0.000000 0.000000 0.000000
-0.000000 0.000000 0.000000
-0.000000 0.000000 0.000000
-0.000000 0.000000 0.000000
-0.000000 0.000000 0.000000
-0.000000 0.000000 0.000000
-0.000000 0.000000 0.000000
-0.000000 0.000000 0.000000
-0.000000 0.000000 0.000000
-0.000000 0.000000 0.000000
-0.000000 0.000000 0.000000
-0.000000 0.000000 0.000000
-0.000000 0.000000 0.000000
-0.000000 0.000000 0.000000
-0.000000 0.000000 0.000000
-0.000000 0.000000 0.000000
-0.000000 0.000000 0.000000
-0.000000 0.000000 0.000000
-0.000000 0.000000 0.000000
-0.000000 0.000000 0.000000
-0.000000 0.000000 0.000000
-0.000000 0.000000 0.000000
-0.000000 0.000000 0.000000
-0.000000 0.000000 0.000000
-0.000000 0.000000 0.000000
-0.000000 0.000000 0.000000
-0.000000 0.000000 0.000000
-0.000000 0.000000 0.000000
-0.000000 0.000000 0.000000
-0.000000 0.000000 0.000000
-0.000000 0.000000 0.000000
-0.000000 0.000000 0.000000
-0.000000 0.000000 0.000000
-0.000000 0.000000 0.000000
-0.000000 0.000000 0.000000
-0.000000 0.000000 0.000000
-0.000000 0.000000 0.000000
-0.000000 0.000000 0.000000
-0.000000 0.000000 0.000000
-0.000000 0.000000 0.000000
-0.000000 0.000000 0.000000
-0.000000 0.000000 0.000000
-0.000000 0.000000 0.000000
-0.000000 0.000000 0.000000
-0.000000 0.000000 0.000000
-0.000000 0.000000 0.000000
-0.000000 0.000000 0.000000
-0.000000 0.000000 0.000000
-0.000000 0.000000 0.000000
-0.000000 0.000000 0.000000
-0.000000 0.000000 0.000000
-0.000000 0.000000 0.000000
-0.000000 0.000000 0.000000
-0.000000 0.000000 0.000000
-0.000000 0.000000 0.000000
-0.000000 0.000000 0.000000
-0.000000 0.000000 0.000000
-0.000000 0.000000 0.000000
-0.000000 0.000000 0.000000
-0.000000 0.000000 0.000000
-0.000000 0.000000 0.000000
-0.000000 0.000000 0.000000
-0.000000 0.000000 0.000000
-5.117122 3.417812 0.847507
-5.100981 3.452479 0.848293
-5.084607 3.487077 0.849079
-5.042759 3.504071 0.845803
-5.034136 3.544075 0.847900
-5.028440 3.586407 0.850521
-5.021609 3.628222 0.853011
-5.016055 3.671259 0.855763
-5.020514 3.722037 0.860218
-5.024539 3.773007 0.864674
-5.021024 3.818765 0.867950
-5.013994 3.862203 0.870702
-5.004273 3.903869 0.873061
-4.996563 3.947404 0.875813
-5.000121 4.000279 0.880530
-4.996283 4.047730 0.884068
-5.001249 4.102827 0.889179
-5.000387 4.153704 0.893373
-4.984671 4.192601 0.895076
-4.988292 4.248171 0.900187
-4.972644 4.287760 0.902022
-4.967156 4.336443 0.905691
-4.967199 4.390471 0.910409
-4.963811 4.442017 0.914602
-4.963649 4.497014 0.919451
-4.958615 4.548156 0.923513
-4.964764 4.610195 0.929672
-4.958056 4.660939 0.933604
-4.969586 4.729540 0.940942
-4.956182 4.775074 0.943825
-4.938146 4.816467 0.945922
-4.933194 4.871052 0.950508
-4.933368 4.931362 0.956143
-4.932986 4.991856 0.961778
-4.923735 5.044019 0.965841
-4.913340 5.095541 0.969772
-4.918226 5.163634 0.976717
-4.916346 5.225479 0.982484
-4.913890 5.287495 0.988249
-4.902812 5.340913 0.992443
-4.888597 5.391457 0.996112
-4.875269 5.443502 1.000044
-4.829951 5.459950 0.997685
-4.771567 5.461119 0.992705
-4.714647 5.463278 0.987987
-4.651449 5.457401 0.981959
-4.585309 5.447164 0.975276
-4.527077 5.445469 0.970165
-4.474074 5.449395 0.966103
-4.409328 5.438247 0.959551
-4.355425 5.439665 0.955226
-4.310281 5.451513 0.952736
-4.218779 5.403633 0.940287
-4.178884 5.420781 0.938845
-4.126926 5.421869 0.934783
-4.078687 5.427279 0.931507
-4.020494 5.418768 0.926003
-3.967246 5.416147 0.921547
-3.901981 5.396209 0.914340
-3.849786 5.393425 0.910015
-3.799485 5.392635 0.906084
-3.752738 5.396316 0.902939
-3.694865 5.383280 0.897173
-3.644524 5.380409 0.893111
-3.597665 5.382067 0.889834
-3.541640 5.369287 0.884331
-3.494564 5.369317 0.880923
-0.185533 0.290976 0.079712
-3.390201 5.351505 0.871488
-3.378323 5.405831 0.876730
-0.000000 0.000000 0.000000
-0.000000 0.000000 0.000000
-0.000000 0.000000 0.000000
-0.000000 0.000000 0.000000
-0.000000 0.000000 0.000000
-0.000000 0.000000 0.000000
-0.000000 0.000000 0.000000
-0.000000 0.000000 0.000000
-0.000000 0.000000 0.000000
-0.000000 0.000000 0.000000
-0.000000 0.000000 0.000000
-0.000000 0.000000 0.000000
-0.000000 0.000000 0.000000
-0.000000 0.000000 0.000000
-0.000000 0.000000 0.000000
-0.000000 0.000000 0.000000
-0.000000 0.000000 0.000000
-0.000000 0.000000 0.000000
-0.000000 0.000000 0.000000
-0.000000 0.000000 0.000000
-0.000000 0.000000 0.000000
-0.000000 0.000000 0.000000
-0.000000 0.000000 0.000000
-0.000000 0.000000 0.000000
-0.000000 0.000000 0.000000
-0.000000 0.000000 0.000000
-0.000000 0.000000 0.000000
-0.000000 0.000000 0.000000
-0.000000 0.000000 0.000000
-0.000000 0.000000 0.000000
-0.000000 0.000000 0.000000
-0.000000 0.000000 0.000000
-0.000000 0.000000 0.000000
-0.000000 0.000000 0.000000
-0.000000 0.000000 0.000000
-0.000000 0.000000 0.000000
-0.000000 0.000000 0.000000
-0.000000 0.000000 0.000000
-0.000000 0.000000 0.000000
-0.000000 0.000000 0.000000
-0.000000 0.000000 0.000000
-0.000000 0.000000 0.000000
-0.000000 0.000000 0.000000
-0.000000 0.000000 0.000000
-0.000000 0.000000 0.000000
-0.000000 0.000000 0.000000
-0.000000 0.000000 0.000000
-0.000000 0.000000 0.000000
-0.000000 0.000000 0.000000
-0.000000 0.000000 0.000000
-0.000000 0.000000 0.000000
-0.000000 0.000000 0.000000
-0.000000 0.000000 0.000000
-0.000000 0.000000 0.000000
-0.000000 0.000000 0.000000
-0.000000 0.000000 0.000000
-0.000000 0.000000 0.000000
-0.000000 0.000000 0.000000
-0.000000 0.000000 0.000000
-0.000000 0.000000 0.000000
-0.000000 0.000000 0.000000
-0.000000 0.000000 0.000000
-0.000000 0.000000 0.000000
-0.000000 0.000000 0.000000
-0.000000 0.000000 0.000000
-0.000000 0.000000 0.000000
-0.000000 0.000000 0.000000
-0.000000 0.000000 0.000000
-0.000000 0.000000 0.000000
-0.000000 0.000000 0.000000
-0.000000 0.000000 0.000000
-0.000000 0.000000 0.000000
-0.000000 0.000000 0.000000
-0.000000 0.000000 0.000000
-0.000000 0.000000 0.000000
-0.000000 0.000000 0.000000
-0.000000 0.000000 0.000000
-0.000000 0.000000 0.000000
-0.000000 0.000000 0.000000
-0.000000 0.000000 0.000000
-0.000000 0.000000 0.000000
-0.000000 0.000000 0.000000
-0.000000 0.000000 0.000000
-0.000000 0.000000 0.000000
-0.000000 0.000000 0.000000
-0.000000 0.000000 0.000000
-0.000000 0.000000 0.000000
-0.000000 0.000000 0.000000
-0.000000 0.000000 0.000000
-0.000000 0.000000 0.000000
-0.000000 0.000000 0.000000
0.000000 0.000000 0.000000
0.000000 0.000000 0.000000
0.000000 0.000000 0.000000
0.000000 0.000000 0.000000
0.000000 0.000000 0.000000
0.000000 0.000000 0.000000
0.000000 0.000000 0.000000
0.018841 0.362449 0.082071
0.021282 0.366286 0.082595
0.023711 0.369118 0.082989
0.026241 0.372922 0.083513
0.028311 0.369787 0.083120
0.030894 0.373560 0.083644
0.033440 0.376327 0.084037
0.036020 0.379076 0.084430
0.038442 0.379834 0.084561
0.040978 0.381563 0.084823
0.043536 0.383276 0.085085
0.046347 0.386940 0.085609
0.048962 0.388616 0.085872
0.052235 0.395191 0.086789
0.055457 0.400757 0.087575
0.058332 0.403354 0.087968
0.061532 0.407892 0.088624
0.064789 0.412406 0.089279
0.067633 0.413958 0.089541
0.070824 0.417447 0.090065
0.074229 0.421889 0.090720
0.077167 0.423377 0.090982
0.081031 0.429718 0.091900
0.084040 0.431160 0.092162
0.087457 0.434526 0.092686
0.091713 0.441751 0.093734
0.096472 0.450879 0.095045
0.098815 0.448342 0.094783
0.101780 0.448694 0.094914
0.104754 0.449027 0.095045
0.106593 0.444517 0.094521
0.109553 0.444818 0.094652
0.112521 0.445099 0.094783
0.115743 0.446321 0.095045
0.118227 0.444644 0.094914
0.121469 0.445824 0.095176
0.123146 0.441248 0.094652
0.127471 0.446208 0.095438
0.131585 0.450179 0.096093
0.134626 0.450313 0.096224
0.138249 0.452325 0.096617
0.141609 0.453363 0.096879
0.144687 0.453430 0.097010
0.147466 0.452534 0.097010
0.149308 0.448796 0.096617
0.151743 0.446932 0.096486
0.154160 0.445055 0.096355
0.155904 0.441294 0.095962
0.159276 0.442196 0.096224
0.162665 0.443074 0.096486
0.165726 0.442997 0.096617
0.170195 0.446608 0.097273
0.173645 0.447405 0.097535
0.178560 0.451868 0.098321
0.182064 0.452606 0.098583
0.189319 0.462500 0.100156
0.194428 0.466826 0.100942
0.202674 0.478416 0.102776
0.205605 0.477164 0.102776
0.208925 0.476802 0.102907
0.219072 0.491828 0.105266
0.220865 0.487762 0.104873
0.221379 0.480989 0.104087
0.223490 0.477824 0.103825
0.225994 0.475547 0.103694
0.228478 0.473258 0.103563
0.230509 0.470065 0.103301
0.232509 0.466865 0.103039
0.234924 0.464544 0.102907
0.239573 0.466625 0.103432
0.242432 0.465146 0.103432
0.245743 0.464527 0.103563
0.247654 0.461262 0.103301
0.249063 0.457119 0.102907
0.252819 0.457319 0.103170
0.256103 0.456625 0.103301
0.263295 0.462810 0.104480
0.267610 0.463765 0.104873
0.000000 0.000000 0.000000
0.000000 0.000000 0.000000
0.000000 0.000000 0.000000
0.000000 0.000000 0.000000
0.000000 0.000000 0.000000
3.030896 4.853719 0.790502
3.012384 4.758794 0.778577
3.058118 4.766090 0.782639
3.092708 4.755548 0.783950
3.134919 4.756351 0.787095
3.181659 4.763410 0.791288
3.225271 4.765147 0.794696
3.263417 4.758350 0.796792
3.301036 4.750450 0.798758
3.343815 4.749564 0.801903
3.385556 4.746716 0.804786
3.429709 4.746749 0.808193
3.469306 4.740018 0.810552
3.507770 4.731385 0.812649
3.548638 4.725630 0.815270
3.601567 4.735335 0.820512
3.648094 4.735927 0.824312
3.692935 4.733779 0.827719
3.733586 4.725813 0.830209
3.773658 4.716752 0.832568
3.812511 4.705835 0.834664
3.858916 4.703817 0.838334
3.903538 4.699118 0.841610
3.949524 4.695566 0.845148
4.003324 4.700684 0.850259
4.047626 4.694054 0.853404
4.101774 4.698260 0.858515
4.158751 4.704949 0.864150
4.194813 4.687470 0.865591
4.211517 4.648417 0.863232
4.404778 4.802243 0.895469
4.448324 4.790383 0.898221
4.498001 4.784672 0.902153
4.549141 4.779967 0.906346
4.601079 4.775527 0.910671
4.657979 4.775599 0.915912
4.712962 4.773033 0.920761
4.763182 4.765063 0.924693
4.816302 4.759444 0.929148
4.870240 4.754044 0.933735
4.923579 4.747471 0.938190
4.984915 4.747945 0.944087
5.053660 4.754638 0.951295
5.105247 4.744465 0.955357
5.139374 4.717744 0.956274
5.162351 4.680793 0.955226
5.190974 4.649029 0.955226
5.219402 4.617090 0.955226
5.225240 4.565405 0.951295
5.223137 4.507345 0.946053
5.230327 4.457845 0.942515
5.304598 4.465260 0.950639
5.356288 4.452912 0.954833
5.411089 4.442614 0.959551
5.479055 4.442426 0.966496
5.543351 4.438472 0.972786
5.599250 4.427130 0.977635
5.864613 4.578806 1.017604
5.876896 4.530628 1.014983
5.881711 4.477066 1.011182
5.870243 4.411701 1.004761
5.860583 4.348419 0.998733
5.858366 4.291283 0.994015
5.846833 4.227947 0.987856
5.842814 4.170676 0.983008
5.842364 4.116470 0.978814
5.840657 4.061861 0.974490
5.822155 3.996206 0.967544
5.829330 3.948728 0.964792
5.825430 3.894148 0.960337
5.839285 3.851779 0.958764
5.825424 3.791535 0.952867
5.818551 3.736430 0.948150
5.820433 3.687390 0.944874
5.821093 3.637943 0.941466
5.820522 3.588107 0.937928
5.811090 3.533263 0.933079
5.810557 3.484281 0.929672
5.807082 3.433924 0.925872
5.805779 3.385241 0.922465
5.796362 3.332255 0.917878
5.778753 3.275112 0.912112
5.777106 3.227500 0.908836
5.778565 3.181947 0.906084
5.776199 3.134605 0.902808
5.773470 3.087413 0.899532
5.773012 3.041759 0.896649
5.773091 2.996684 0.893897
5.778131 2.954432 0.891931
5.735060 2.888145 0.882889
5.742905 2.848054 0.881448
5.739785 2.802754 0.878434
5.733645 2.756310 0.875026
5.726256 2.709624 0.871488
5.726600 2.666901 0.869129
5.732041 2.626755 0.867557
5.742629 2.589088 0.866771
5.718535 2.536112 0.861004
5.730354 2.499390 0.860480
5.751960 2.466918 0.861398
6.105869 2.574538 0.910015
6.201223 2.570060 0.921416
6.292159 2.562638 0.932162
6.385995 2.555301 0.943301
6.471672 2.543642 0.953260
6.576865 2.538527 0.965972
6.666476 2.526240 0.976455
6.763615 2.515715 0.987987
6.859941 2.503751 0.999388
6.980637 2.499391 1.014196
7.056638 2.477871 1.022714
7.152320 2.462291 1.033984
4.574836 1.543176 0.672299
4.495743 1.485812 0.659981
4.445359 1.438949 0.651725
4.451270 1.410746 0.651332
4.422917 1.371943 0.646221
4.362005 1.323745 0.636655
4.296870 1.275218 0.626564
4.276052 1.240535 0.622633
4.224452 1.197495 0.614508
4.232676 1.171817 0.614639
5.524045 1.493267 0.790502
5.645253 1.488948 0.805834
5.643722 1.451563 0.804393
5.634253 1.412323 0.801903
5.628366 1.374195 0.799937
5.626083 1.337111 0.798496
5.617762 1.298765 0.796268
5.610150 1.260789 0.794171
5.613907 1.225496 0.793647
5.615501 1.189792 0.792861
5.610073 1.152717 0.791157
5.602456 1.115366 0.789192
5.594593 1.078152 0.787226
5.594281 1.042532 0.786309
5.596670 1.007483 0.785784
5.598840 0.972444 0.785260
5.591990 0.935942 0.783557
5.582947 0.899244 0.781591
5.583461 0.864212 0.780936
5.583756 0.829207 0.780281
5.559295 0.790736 0.776349
1.894140 0.256791 0.286764
1.896663 0.245292 0.286895
1.899116 0.233771 0.287026
1.895591 0.221536 0.286371
1.893959 0.209571 0.285978
1.895210 0.197946 0.285978
1.891456 0.185826 0.285323
1.891573 0.174125 0.285191
1.890630 0.162345 0.284929
1.885662 0.150265 0.284143
1.886548 0.138692 0.284143
1.884397 0.126912 0.283750
1.879203 0.114980 0.282964
1.876904 0.103282 0.282571
1.877502 0.091764 0.282571
1.875058 0.080113 0.282177
1.872542 0.068496 0.281784
1.858064 0.056543 0.279819
1.906938 0.046351 0.286240
1.912143 0.034743 0.286895
1.908355 0.022959 0.286371
1.874754 0.011030 0.281915
1.871812 -0.000474 0.281522
1.871774 -0.011960 0.281522
1.862743 -0.023338 0.280343
1.857609 -0.034678 0.279688
1.858352 -0.046099 0.279819
1.861007 -0.057591 0.280212
1.845758 -0.068467 0.278246
1.844313 -0.079749 0.278115
1.845769 -0.091161 0.278377
1.835276 -0.101941 0.277067
1.830658 -0.112958 0.276542
1.830920 -0.124255 0.276674
1.851875 -0.137084 0.279557
1.850999 -0.148444 0.279557
1.851041 -0.159883 0.279688
1.849038 -0.171147 0.279557
1.883472 -0.185975 0.284274
1.882295 -0.197528 0.284274
1.881048 -0.209074 0.284274
1.839357 -0.215899 0.278901
1.840950 -0.227544 0.279294
1.834603 -0.238200 0.278639
1.844895 -0.251049 0.280212
1.842339 -0.262226 0.280081
1.835792 -0.272799 0.279426
1.828204 -0.283152 0.278639
1.835242 -0.295778 0.279819
1.830459 -0.306544 0.279426
1.830498 -0.318108 0.279688
1.829487 -0.329509 0.279819
1.827431 -0.340728 0.279819
1.826279 -0.352122 0.279950
1.827001 -0.363900 0.280343
1.823763 -0.374905 0.280212
1.823368 -0.386498 0.280474
1.822900 -0.398100 0.280736
1.821390 -0.409495 0.280867
1.822707 -0.421554 0.281391
1.820086 -0.432730 0.281391
1.815471 -0.443421 0.281129
1.813677 -0.454792 0.281260
1.809892 -0.465666 0.281129
1.807960 -0.477015 0.281260
1.803084 -0.487583 0.280998
1.799103 -0.498373 0.280867
1.796965 -0.509673 0.280998
1.798566 -0.522068 0.281653
1.839053 -0.546048 0.287681
0.000000 -0.000000 0.000000
0.000000 -0.000000 0.000000
0.000000 -0.000000 0.000000
0.000000 -0.000000 0.000000
0.000000 -0.000000 0.000000
0.000000 -0.000000 0.000000
2.863054 -0.985004 0.434321
2.974839 -1.043868 0.450833
2.971179 -1.063103 0.451226
2.840712 -1.036179 0.433797
2.665153 -0.990787 0.409947
2.681278 -1.015540 0.413092
0.000000 -0.000000 0.000000
2.659385 -1.044745 0.411781
2.661210 -1.064353 0.412961
2.667486 -1.085890 0.414795
2.670850 -1.106407 0.416237
2.661269 -1.121620 0.415844
2.659805 -1.140269 0.416630
2.658212 -1.158943 0.417416
2.656490 -1.177640 0.418202
2.656446 -1.197174 0.419251
2.651755 -1.214688 0.419644
2.655938 -1.236371 0.421348
2.654576 -1.255609 0.422265
2.649503 -1.273160 0.422658
2.653225 -1.295042 0.424362
2.660332 -1.318777 0.426589
0.000000 -0.000000 0.000000
2.675734 -1.367554 0.431307
2.703379 -1.402652 0.436680
2.696476 -1.420137 0.436942
2.682464 -1.433853 0.436156
2.676231 -1.451702 0.436549
2.669879 -1.469529 0.436942
2.666872 -1.489265 0.437859
2.662860 -1.508530 0.438646
2.657853 -1.527309 0.439301
2.661282 -1.551072 0.441266
2.661958 -1.573421 0.442839
0.000000 -0.000000 0.000000
2.657702 -1.615231 0.445198
2.671379 -1.646061 0.448867
2.675526 -1.671345 0.451095
2.696218 -1.707343 0.455943
2.740768 -1.759178 0.464592
2.913616 -1.895372 0.493553
2.906899 -1.916486 0.494340
2.904979 -1.940892 0.495912
2.902047 -1.964791 0.497354
2.809804 -1.927627 0.484511
2.337883 -1.625291 0.410471
2.338406 -1.647023 0.412174
2.853762 -2.035994 0.497485
2.877382 -2.079587 0.503382
2.859767 -2.093690 0.502596
2.851645 -2.114740 0.503382
2.841787 -2.134578 0.503906
2.837317 -2.158575 0.505348
2.833445 -2.183202 0.506920
2.826250 -2.205423 0.507968
2.818111 -2.227024 0.508886
2.809813 -2.248608 0.509803
2.802896 -2.271422 0.510983
2.799639 -2.297378 0.512817
2.803794 -2.329713 0.515962
2.834216 -2.384515 0.523694
2.797640 -2.383224 0.519894
2.795730 -2.411348 0.522121
2.793580 -2.439539 0.524349
2.793417 -2.469763 0.526970
2.780427 -2.488839 0.527363
2.769512 -2.509845 0.528149
2.762828 -2.534832 0.529722
2.762481 -2.565900 0.532474
2.769080 -2.603848 0.536536
2.787528 -2.653589 0.542827
2.775477 -2.674770 0.543613
2.759013 -2.691750 0.543613
2.741739 -2.707932 0.543482
2.733487 -2.733112 0.545054
2.723635 -2.756884 0.546365
2.714287 -2.781346 0.547806
2.702676 -2.803657 0.548855
2.694996 -2.830235 0.550689
2.679618 -2.848884 0.551082
2.658037 -2.860916 0.550296
2.620317 -2.855265 0.546365
2.572776 -2.838245 0.540468
2.543405 -2.840687 0.538109
2.420810 -2.737450 0.517142
2.368085 -2.711198 0.509934
2.321605 -2.691157 0.503906
2.282537 -2.678947 0.499319
0.506822 -0.603698 0.138290
0.000000 -0.000000 0.000000
0.000000 -0.000000 0.000000
0.000000 -0.000000 0.000000
0.487515 -0.610538 0.137372
0.477610 -0.605742 0.136062
0.470223 -0.603973 0.135276
0.464087 -0.603707 0.134751
0.455569 -0.600233 0.133703
0.451877 -0.603017 0.133703
0.454077 -0.613739 0.135014
0.449131 -0.614914 0.134751
0.444187 -0.616052 0.134489
0.433486 -0.609084 0.132917
0.439450 -0.625508 0.135145
0.446927 -0.644469 0.137766
0.442403 -0.646382 0.137634
0.435648 -0.644981 0.136979
0.431131 -0.646817 0.136848
0.429884 -0.653588 0.137503
0.425866 -0.656213 0.137503
0.419152 -0.654644 0.136848
0.417781 -0.661390 0.137503
0.410561 -0.658897 0.136717
0.405470 -0.659716 0.136455
0.400899 -0.661345 0.136324
0.393774 -0.658691 0.135538
0.385687 -0.654269 0.134489
0.354691 -0.610381 0.127413
0.350445 -0.611687 0.127282
0.342285 -0.606064 0.126102
0.335657 -0.602960 0.125316
0.327646 -0.597193 0.124137
0.317354 -0.586995 0.122302
0.310940 -0.583686 0.121516
0.305503 -0.582075 0.120992
0.302383 -0.584819 0.121123
0.298789 -0.586663 0.121123
0.294738 -0.587600 0.120992
0.290245 -0.587621 0.120730
0.284894 -0.585828 0.120205
0.279145 -0.583098 0.119550
0.274714 -0.583008 0.119288
0.271550 -0.585581 0.119419
0.266712 -0.584533 0.119026
0.261898 -0.583447 0.118633
0.257107 -0.582325 0.118240
0.251943 -0.580257 0.117716
0.245641 -0.575414 0.116798
0.237867 -0.566863 0.115357
0.234764 -0.569228 0.115488
0.229022 -0.565149 0.114702
0.224445 -0.563783 0.114308
0.220982 -0.565149 0.114308
0.217510 -0.566494 0.114308
0.213327 -0.565964 0.114046
0.210542 -0.569121 0.114308
0.207386 -0.571333 0.114439
0.204210 -0.573528 0.114571
0.201345 -0.576641 0.114833
0.198448 -0.579740 0.115095
0.195522 -0.582826 0.115357
0.192253 -0.584956 0.115488
0.189271 -0.588011 0.115750
0.185360 -0.588216 0.115619
0.181453 -0.588395 0.115488
0.177840 -0.589498 0.115488
0.173937 -0.589627 0.115357
0.169763 -0.588779 0.115095
0.165876 -0.588856 0.114964
0.161730 -0.587952 0.114702
0.158120 -0.588934 0.114702
0.154756 -0.590851 0.114833
0.150881 -0.590830 0.114702
0.147253 -0.591744 0.114702
0.144090 -0.594563 0.114964
0.140668 -0.596400 0.115095
0.137006 -0.597252 0.115095
0.133774 -0.600016 0.115357
0.129878 -0.599857 0.115226
0.126607 -0.602582 0.115488
0.122907 -0.603348 0.115488
0.119009 -0.603118 0.115357
0.115494 -0.604810 0.115488
0.112508 -0.609406 0.116012
0.110700 -0.620817 0.117454
0.109946 -0.639066 0.119812
0.105695 -0.637773 0.119550
0.103674 -0.650154 0.121123
0.100442 -0.655676 0.121778
0.097292 -0.662164 0.122564
0.096163 -0.683359 0.125316
0.091701 -0.681972 0.125054
0.087898 -0.685471 0.125447
0.084421 -0.691900 0.126234
0.080058 -0.691421 0.126102
0.076143 -0.694855 0.126496
0.071982 -0.696295 0.126627
0.067318 -0.692777 0.126102
0.063340 -0.696139 0.126496
0.058640 -0.691576 0.125840
0.054237 -0.689946 0.125578
0.049856 -0.688289 0.125316
0.045497 -0.686603 0.125054
0.041100 -0.683901 0.124661
0.037178 -0.689090 0.125316
0.032509 -0.680393 0.124137
0.027603 -0.663743 0.121909
0.023493 -0.662909 0.121778
0.019825 -0.675922 0.123482
0.015406 -0.665129 0.122040
0.011324 -0.665211 0.122040
0.007318 -0.671216 0.122826
0.003231 -0.676205 0.123482
-0.000918 -0.675221 0.123351
-0.005050 -0.673220 0.123088
-0.009192 -0.674167 0.123219
-0.013311 -0.673107 0.123088
-0.017417 -0.672022 0.122957
-0.021480 -0.669920 0.122695
-0.025987 -0.680674 0.124137
