# This PCD file was generated using the MATLAB® pcwrite function
# from Computer Vision Toolbox®.
# .PCD v.7 - Point Cloud Data file format
VERSION .7
FIELDS x y z
SIZE 4 4 4
TYPE F F F
COUNT 1 1 1
WIDTH 1709
HEIGHT 1
VIEWPOINT 0 0 0 1 0 0 0
POINTS 1709
DATA ascii
-0.000000 0.000000 0.000000
-0.000000 0.000000 0.000000
-0.000000 0.000000 0.000000
-0.000000 0.000000 0.000000
-0.000000 0.000000 0.000000
-0.000000 0.000000 0.000000
-0.106568 0.339627 0.114969
-0.000000 0.000000 0.000000
-0.000000 0.000000 0.000000
-0.000000 0.000000 0.000000
-0.000000 0.000000 0.000000
-0.095568 0.340861 0.114518
-0.000000 0.000000 0.000000
-0.000000 0.000000 0.000000
-0.000000 0.000000 0.000000
-0.000000 0.000000 0.000000
-0.000000 0.000000 0.000000
-0.000000 0.000000 0.000000
-0.084228 0.358867 0.117902
-0.082024 0.359377 0.117902
-0.079818 0.359873 0.117902
-0.077608 0.360356 0.117902
-0.076002 0.363684 0.118579
-0.073180 0.361281 0.117902
-0.071343 0.363634 0.118354
-0.068926 0.363109 0.118128
-0.067054 0.365440 0.118579
-0.064984 0.366803 0.118805
-0.062732 0.367195 0.118805
-0.060961 0.370456 0.119482
-0.059463 0.375631 0.120610
-0.058054 0.381765 0.121964
-0.055710 0.382114 0.121964
-0.053640 0.384378 0.122415
-0.051017 0.382769 0.121964
-0.048667 0.383075 0.121964
-0.047753 0.394968 0.124671
-0.051363 0.446533 0.136630
-0.048082 0.441999 0.135502
-0.041291 0.403531 0.126476
-0.038622 0.401838 0.126025
-0.035345 0.393337 0.123994
-0.032090 0.383841 0.121738
-0.029577 0.382088 0.121287
-0.026871 0.377405 0.120159
-0.024224 0.372703 0.119030
-0.021876 0.371872 0.118805
-0.019540 0.371027 0.118579
-0.017263 0.371140 0.118579
-0.014943 0.370265 0.118354
-0.012671 0.370350 0.118354
-0.010398 0.370421 0.118354
-0.008101 0.369504 0.118128
-0.005852 0.370521 0.118354
-0.003591 0.371524 0.118579
-0.001311 0.371539 0.118579
0.000969 0.371540 0.118579
0.003243 0.370553 0.118354
0.005517 0.370526 0.118354
0.007807 0.371459 0.118579
0.010110 0.372378 0.118805
0.012483 0.375230 0.119482
0.014855 0.377094 0.119933
0.017293 0.379916 0.120610
0.019718 0.381748 0.121061
0.022167 0.383566 0.121512
0.024579 0.384395 0.121738
0.027002 0.385209 0.121964
0.029508 0.386979 0.122415
0.031959 0.387762 0.122641
0.034503 0.389500 0.123092
0.036982 0.390251 0.123317
0.039660 0.392926 0.123994
0.042171 0.393644 0.124220
0.044586 0.393378 0.124220
0.046886 0.392129 0.123994
0.050122 0.398603 0.125574
0.053440 0.405051 0.127153
0.056577 0.409543 0.128281
0.060181 0.416904 0.130086
0.063023 0.418455 0.130538
0.066331 0.422875 0.131666
0.069233 0.424383 0.132117
0.072636 0.428755 0.133245
0.076428 0.435021 0.134825
0.078580 0.431667 0.134148
0.082827 0.439798 0.136178
0.086626 0.445022 0.137532
0.089734 0.446393 0.137983
0.092667 0.446789 0.138209
0.095407 0.446212 0.138209
0.097936 0.444666 0.137983
0.100023 0.441205 0.137307
0.102291 0.438684 0.136855
0.104756 0.437100 0.136630
0.107206 0.435502 0.136404
0.109876 0.434836 0.136404
0.113994 0.439816 0.137758
0.117930 0.443819 0.138886
0.120904 0.444028 0.139112
0.125701 0.450790 0.140917
0.128200 0.449073 0.140691
0.131765 0.451085 0.141368
0.135084 0.452137 0.141819
0.138138 0.452232 0.142045
0.141198 0.452306 0.142270
0.145439 0.456076 0.143399
0.146438 0.449612 0.142045
0.149804 0.450556 0.142496
0.154120 0.454245 0.143624
0.155639 0.449605 0.142722
0.158716 0.449561 0.142947
0.160816 0.446744 0.142496
0.162555 0.443002 0.141819
0.166287 0.444737 0.142496
0.168668 0.442797 0.142270
0.174533 0.449936 0.144301
0.179424 0.454298 0.145655
0.184737 0.459522 0.147234
0.198557 0.485455 0.154003
0.196319 0.471624 0.150844
0.199210 0.470411 0.150844
0.207842 0.482614 0.154229
0.205356 0.468824 0.151070
0.209017 0.469337 0.151521
0.212693 0.469822 0.151973
0.216382 0.470280 0.152424
0.220495 0.471594 0.153101
0.224217 0.471994 0.153552
0.228373 0.473244 0.154229
0.232980 0.475337 0.155131
0.236757 0.475645 0.155583
0.239233 0.473313 0.155357
0.241690 0.470968 0.155131
0.245472 0.471206 0.155583
0.250626 0.474002 0.156711
0.253071 0.471596 0.156485
0.260136 0.477744 0.158516
0.269632 0.488091 0.161675
0.274520 0.489831 0.162577
0.282318 0.496616 0.164834
0.284875 0.494030 0.164608
0.288881 0.493956 0.165059
0.290421 0.489658 0.164382
0.294420 0.489538 0.164834
0.296913 0.486890 0.164608
0.000000 0.000000 0.000000
0.000000 0.000000 0.000000
0.000000 0.000000 0.000000
0.000000 0.000000 0.000000
3.128755 4.812835 1.362033
3.134651 4.757747 1.352105
3.173519 4.753010 1.356166
3.208627 4.742325 1.358648
3.244824 4.732995 1.361582
3.288806 4.734602 1.367674
3.333490 4.736644 1.373991
3.381149 4.742281 1.381437
3.420448 4.735663 1.385499
3.459218 4.727955 1.389334
3.499761 4.722297 1.393847
3.545042 4.722552 1.400165
3.589869 4.721654 1.406257
3.632439 4.717294 1.411446
3.670300 4.706442 1.414831
3.711786 4.699891 1.419569
3.761846 4.703660 1.427466
3.807800 4.701690 1.433784
3.860664 4.707621 1.442583
3.906899 4.704833 1.448901
3.949484 4.697179 1.453865
3.994648 4.692147 1.459731
4.034810 4.680832 1.463793
4.078185 4.672872 1.468982
4.137737 4.682808 1.479812
4.158599 4.648617 1.477105
4.244583 4.686567 1.496960
4.311439 4.702088 1.510047
4.368704 4.706253 1.519749
4.416842 4.699950 1.526292
4.481852 4.710880 1.538477
4.531619 4.705048 1.545471
4.575363 4.692502 1.550435
4.636230 4.696932 1.561040
4.686994 4.690452 1.568260
4.734389 4.680100 1.574352
4.786711 4.674108 1.582023
4.837735 4.666296 1.589244
4.902946 4.671476 1.600976
4.959181 4.667348 1.609776
5.011269 4.658725 1.617222
5.067023 4.652933 1.625796
5.117844 4.642048 1.632790
5.175250 4.636566 1.641816
5.242993 4.639594 1.654000
5.291164 4.624650 1.660092
5.365156 4.631574 1.674081
5.417934 4.619429 1.681527
5.462569 4.599906 1.686491
5.567830 4.630476 1.709731
5.620978 4.616634 1.717176
5.677947 4.605382 1.725750
5.755516 4.610052 1.740417
5.806614 4.592784 1.747185
5.832383 4.555270 1.746509
5.837082 4.501545 1.739740
5.832044 4.440852 1.730263
5.832710 4.385075 1.722592
5.829784 4.327134 1.714018
5.832654 4.274003 1.707249
5.824831 4.213576 1.697547
5.821244 4.156804 1.689198
5.810015 4.095183 1.678819
5.802248 4.036640 1.669568
5.803620 3.984967 1.663025
5.797319 3.928509 1.654451
5.785686 3.869029 1.644523
5.778422 3.813061 1.635949
5.771506 3.757860 1.627601
5.778883 3.712369 1.623314
5.779338 3.662756 1.617222
5.749668 3.594681 1.603007
5.730160 3.533758 1.591725
5.737586 3.489923 1.587890
5.732162 3.438610 1.580670
5.733031 3.391466 1.575254
5.736063 3.345913 1.570516
5.733685 3.297537 1.564424
5.728389 3.247874 1.557655
5.735455 3.205532 1.554271
5.739658 3.161816 1.550209
5.722994 3.107010 1.540733
5.731644 3.066319 1.538025
5.733978 3.022459 1.533738
5.729938 2.975541 1.527872
5.727274 2.929675 1.522457
5.724263 2.883955 1.517042
5.716545 2.836215 1.510498
5.711958 2.790391 1.504858
5.710537 2.746421 1.500119
5.711433 2.703824 1.496058
5.708490 2.659673 1.491094
5.704336 2.615254 1.485904
5.703403 2.572590 1.481617
5.704834 2.531221 1.478007
5.702402 2.488374 1.473495
5.698764 2.445267 1.468757
5.690324 2.400404 1.462890
5.683349 2.356485 1.457475
5.677855 2.313477 1.452511
5.668429 2.269176 1.446645
5.681340 2.233996 1.446419
5.692214 2.198041 1.445742
5.683733 2.154780 1.440327
5.674935 2.111706 1.434912
5.656674 2.065479 1.427240
5.651816 2.024486 1.422953
5.646669 1.983631 1.418666
5.647682 1.945137 1.415959
5.646589 1.906082 1.412800
5.644305 1.866808 1.409415
5.647313 1.829436 1.407385
5.640789 1.789151 1.403098
5.638636 1.750459 1.399939
5.642745 1.713845 1.398360
5.637280 1.674471 1.394524
5.631545 1.635228 1.390688
5.625540 1.596119 1.386852
5.615514 1.556104 1.382114
5.611791 1.518055 1.378955
5.593685 1.476377 1.372412
5.611129 1.444215 1.374443
5.613271 1.408098 1.372863
5.611395 1.371083 1.370381
5.605487 1.333242 1.366997
5.605020 1.296844 1.364966
5.603367 1.260288 1.362710
5.590057 1.221304 1.357746
5.596493 1.186779 1.357520
5.587448 1.149077 1.353685
5.583884 1.112676 1.351203
5.582954 1.076915 1.349398
5.582753 1.041386 1.347818
5.577533 1.005036 1.345111
5.562479 0.967118 1.340147
5.561584 0.931841 1.338567
5.559502 0.896456 1.336762
5.565861 0.862476 1.336988
5.574903 0.828882 1.337890
5.547092 0.789983 1.330219
1.899222 0.257818 0.476430
1.895937 0.245531 0.475302
1.894508 0.233534 0.474625
1.892035 0.221450 0.473723
1.890453 0.209513 0.473046
1.886859 0.197399 0.471918
1.883188 0.185338 0.470790
1.880409 0.173419 0.469887
1.878526 0.161625 0.469210
1.879482 0.150096 0.469210
1.880368 0.138561 0.469210
1.879239 0.126888 0.468759
1.879010 0.115295 0.468533
1.879682 0.103763 0.468533
1.878337 0.092131 0.468082
1.880814 0.080689 0.468533
1.873485 0.068856 0.466728
1.871925 0.057298 0.466277
1.871267 0.045787 0.466051
1.873461 0.034341 0.466503
1.871688 0.022820 0.466051
1.871793 0.011335 0.466051
1.870853 -0.000151 0.465826
1.870817 -0.011630 0.465826
1.870710 -0.023109 0.465826
1.863715 -0.034465 0.464246
1.862494 -0.045877 0.464021
1.861204 -0.057275 0.463795
1.858871 -0.068623 0.463344
1.858414 -0.080028 0.463344
1.858861 -0.091476 0.463569
1.859238 -0.102934 0.463795
1.861489 -0.114518 0.464472
1.863667 -0.126133 0.465149
1.862858 -0.137566 0.465149
1.860036 -0.148839 0.464697
1.859088 -0.160249 0.464697
1.855160 -0.171386 0.464021
1.852134 -0.182576 0.463569
1.846134 -0.193433 0.462441
1.839102 -0.204116 0.461087
1.834912 -0.215058 0.460411
1.832591 -0.226194 0.460185
1.832135 -0.237559 0.460411
1.831608 -0.248927 0.460636
1.830046 -0.260161 0.460636
1.829379 -0.271527 0.460862
1.829605 -0.283044 0.461313
1.825909 -0.293956 0.460862
1.825032 -0.305314 0.461087
1.826005 -0.317005 0.461764
1.827861 -0.328891 0.462667
1.831555 -0.341167 0.464021
1.839952 -0.354419 0.466503
1.835831 -0.365323 0.466051
1.834509 -0.376776 0.466277
1.828350 -0.387220 0.465374
1.821180 -0.397396 0.464246
1.819658 -0.408776 0.464472
1.815217 -0.419496 0.464021
1.814505 -0.431075 0.464472
1.814665 -0.442892 0.465149
1.814749 -0.454727 0.465826
1.813812 -0.466337 0.466277
1.814685 -0.478449 0.467179
1.810775 -0.489321 0.466954
1.808678 -0.500682 0.467179
1.807446 -0.512300 0.467631
2.784999 -0.807208 0.704092
2.863132 -0.848895 0.724173
2.883044 -0.874069 0.730265
2.871112 -0.889726 0.728686
2.881390 -0.912320 0.732522
2.869248 -0.927886 0.730942
2.862576 -0.945169 0.730717
2.857646 -0.963027 0.730942
2.859054 -0.983074 0.732747
2.847452 -0.998666 0.731394
2.842188 -1.016447 0.731619
2.849629 -1.038867 0.735004
2.845941 -1.057349 0.735681
2.843956 -1.076514 0.736809
2.839115 -1.094644 0.737260
2.834159 -1.112755 0.737711
2.826373 -1.129763 0.737486
2.825705 -1.149652 0.739065
2.824900 -1.169575 0.740645
2.812283 -1.184619 0.739291
2.831830 -1.213353 0.746060
2.837730 -1.236538 0.749444
2.822072 -1.250378 0.747413
2.822342 -1.271268 0.749444
2.815375 -1.288967 0.749670
2.809180 -1.307039 0.750121
0.000000 -0.000000 0.000000
2.809617 -1.349421 0.754408
2.804787 -1.368343 0.755311
2.802450 -1.388552 0.756890
2.789525 -1.403534 0.755762
2.767845 -1.413980 0.752377
2.765172 -1.434074 0.753957
2.763218 -1.454642 0.755762
2.758538 -1.473863 0.756890
2.757152 -1.494938 0.758921
2.765856 -1.521682 0.763659
2.721582 -1.519169 0.754408
2.758845 -1.562225 0.766818
2.750052 -1.579608 0.767043
2.726836 -1.588611 0.763433
2.728783 -1.612246 0.766592
0.000000 -0.000000 0.000000
2.653828 -1.612248 0.751700
2.629781 -1.619821 0.747865
2.570200 -1.604985 0.734327
2.572654 -1.628536 0.737711
2.568354 -1.647972 0.739291
2.547575 -1.656799 0.736358
2.549565 -1.680437 0.739742
2.486535 -1.660897 0.725076
2.440790 -1.652109 0.715148
2.400069 -1.646128 0.706574
2.385922 -1.658045 0.705446
2.372516 -1.670412 0.704543
2.355082 -1.679849 0.702513
2.350260 -1.698260 0.704092
2.331145 -1.706323 0.701610
2.326894 -1.725233 0.703415
2.316264 -1.739478 0.703415
2.315631 -1.761321 0.706349
2.315588 -1.783816 0.709507
2.316892 -1.807573 0.713117
2.315698 -1.829603 0.716051
2.312038 -1.849861 0.718307
2.306701 -1.868916 0.720112
2.295944 -1.883652 0.720338
2.257357 -1.875304 0.712215
0.000000 -0.000000 0.000000
0.000000 -0.000000 0.000000
0.000000 -0.000000 0.000000
2.292141 -2.001227 0.737260
0.000000 -0.000000 0.000000
2.270315 -2.031802 0.738163
0.000000 -0.000000 0.000000
0.000000 -0.000000 0.000000
0.000000 -0.000000 0.000000
0.000000 -0.000000 0.000000
0.000000 -0.000000 0.000000
2.483135 -2.392375 0.831123
2.452363 -2.391926 0.825933
2.406435 -2.376137 0.815780
0.000000 -0.000000 0.000000
0.000000 -0.000000 0.000000
0.000000 -0.000000 0.000000
0.000000 -0.000000 0.000000
0.000000 -0.000000 0.000000
0.000000 -0.000000 0.000000
0.000000 -0.000000 0.000000
0.000000 -0.000000 0.000000
2.241502 -2.472150 0.805401
2.226941 -2.486583 0.805626
2.220682 -2.510413 0.808785
0.000000 -0.000000 0.000000
0.000000 -0.000000 0.000000
0.000000 -0.000000 0.000000
0.000000 -0.000000 0.000000
0.000000 -0.000000 0.000000
0.000000 -0.000000 0.000000
0.000000 -0.000000 0.000000
2.607131 -3.255741 0.998541
2.581665 -3.264801 0.996510
0.478530 -0.614393 0.212893
0.000000 -0.000000 0.000000
4.058325 -5.329849 1.584054
4.007978 -5.331292 1.577285
3.975772 -5.356566 1.577511
3.947437 -5.387146 1.579316
3.914879 -5.412055 1.579541
3.881031 -5.435182 1.579316
3.852100 -5.465262 1.581121
3.821832 -5.493593 1.582475
3.790258 -5.520152 1.583377
0.425070 -0.629140 0.208380
0.415243 -0.622829 0.205898
0.412487 -0.626991 0.206350
0.405974 -0.625429 0.205222
0.401075 -0.626269 0.204770
0.395660 -0.626250 0.204093
0.387161 -0.621232 0.202063
0.381295 -0.620279 0.201160
0.375457 -0.619278 0.200258
0.370146 -0.619064 0.199581
0.363860 -0.617132 0.198453
0.356138 -0.612621 0.196648
0.351401 -0.613106 0.196196
0.339461 -0.600845 0.192361
0.331489 -0.595264 0.190330
0.325009 -0.592167 0.188976
0.318579 -0.589014 0.187622
0.312661 -0.586663 0.186494
0.307692 -0.585985 0.185817
0.300947 -0.581811 0.184238
0.297371 -0.583646 0.184238
0.290276 -0.578500 0.182433
0.284556 -0.575907 0.181305
0.280589 -0.576767 0.181079
0.276622 -0.577600 0.180853
0.274324 -0.581928 0.181530
0.271571 -0.585366 0.181982
0.266756 -0.584365 0.181305
0.262364 -0.584215 0.180853
0.257193 -0.582252 0.179951
0.251666 -0.579355 0.178823
0.248107 -0.580888 0.178823
0.243023 -0.578809 0.177920
0.238347 -0.577590 0.177243
0.235166 -0.579944 0.177469
0.227981 -0.572332 0.175213
0.225178 -0.575534 0.175664
0.220940 -0.575087 0.175213
0.217407 -0.576432 0.175213
0.213186 -0.575929 0.174761
0.209983 -0.578141 0.174987
0.206432 -0.579419 0.174987
0.202872 -0.580674 0.174987
0.199941 -0.583750 0.175438
0.195731 -0.583120 0.174987
0.192150 -0.584310 0.174987
0.188861 -0.586405 0.175213
0.184965 -0.586624 0.174987
0.181362 -0.587748 0.174987
0.177752 -0.588850 0.174987
0.173858 -0.588996 0.174761
0.169425 -0.587245 0.174084
0.166617 -0.591085 0.174761
0.162206 -0.589280 0.174084
0.159097 -0.592145 0.174536
0.155211 -0.592168 0.174310
0.151818 -0.594052 0.174536
0.147696 -0.593083 0.174084
0.144054 -0.593978 0.174084
0.138376 -0.586321 0.172054
0.133457 -0.581465 0.170700
0.129887 -0.582273 0.170700
0.125687 -0.580203 0.170023
0.122125 -0.580964 0.170023
0.118754 -0.582656 0.170249
0.115558 -0.585285 0.170700
0.112888 -0.590766 0.171828
0.112122 -0.606770 0.175438
0.107878 -0.604570 0.174761
0.105169 -0.610979 0.176115
0.100451 -0.605848 0.174761
0.096732 -0.606453 0.174761
0.095399 -0.622438 0.178371
0.091722 -0.623976 0.178597
0.088029 -0.625491 0.178823
0.084979 -0.631811 0.180176
0.081855 -0.638117 0.181530
0.078417 -0.642475 0.182433
0.075726 -0.653587 0.184915
0.072038 -0.656944 0.185592
0.067700 -0.654467 0.184915
0.063779 -0.655839 0.185140
0.060204 -0.661068 0.186269
0.055894 -0.658514 0.185592
0.052009 -0.660786 0.186043
0.047809 -0.659150 0.185592
0.044028 -0.663319 0.186494
0.039837 -0.661632 0.186043
0.035505 -0.657000 0.184915
0.032053 -0.668882 0.187622
0.028075 -0.671986 0.188299
0.023515 -0.660463 0.185592
0.019644 -0.666437 0.186945
0.015384 -0.659728 0.185366
0.011354 -0.660784 0.185592
0.007274 -0.658893 0.185140
0.003303 -0.669641 0.187622
-0.000803 -0.675494 0.188976
-0.004969 -0.679373 0.189879
-0.009161 -0.681278 0.190330
-0.013341 -0.681209 0.190330
-0.017544 -0.682088 0.190556
-0.021259 -0.666388 0.186945
-0.024924 -0.654562 0.184238
-0.029105 -0.658290 0.185140
-0.031394 -0.622096 0.176792
-0.033933 -0.598545 0.171377
-0.037309 -0.593463 0.170249
-0.510337 -7.593785 1.795245
-0.560621 -7.641035 1.806978
-0.609191 -7.658816 1.811942
-0.659745 -7.696673 1.821644
-0.712655 -7.754569 1.836084
-0.765825 -7.807255 1.849396
-0.817651 -7.840199 1.858196
-0.870871 -7.881515 1.869026
-0.923500 -7.912794 1.877600
-0.975003 -7.931152 1.883241
-1.041101 -8.060288 1.914829
-1.096546 -8.098159 1.925208
-1.152767 -8.137579 1.936039
-1.209797 -8.178539 1.947320
-1.266929 -8.216216 1.957925
-1.326881 -8.267927 1.971914
-1.392000 -8.346117 1.992221
-1.451486 -8.385416 2.003503
-1.504114 -8.383065 2.005082
-1.556412 -8.378468 2.006210
-1.608527 -8.372586 2.007113
-1.660059 -8.363515 2.007338
-1.713495 -8.363670 2.009820
-1.764781 -8.352999 2.009820
-1.817243 -8.347725 2.011174
-1.870559 -8.345923 2.013430
-1.923484 -8.341884 2.015235
-1.976429 -8.337508 2.017040
-2.029854 -8.334690 2.019297
-2.084027 -8.334365 2.022230
-2.137062 -8.328970 2.024035
-2.188871 -8.318527 2.024712
-2.240125 -8.305881 2.024937
-2.294158 -8.303247 2.027645
-2.357787 -8.334013 2.038475
-2.409421 -8.321260 2.038927
-2.462093 -8.311925 2.040280
-2.515871 -8.305985 2.042537
-2.568228 -8.295045 2.043665
-2.621427 -8.286562 2.045470
-2.675816 -8.281446 2.048177
-2.730850 -8.277824 2.051336
-2.785009 -8.271069 2.053818
-2.839821 -8.265802 2.056751
-2.898215 -8.270288 2.062167
-2.956770 -8.274368 2.067582
-3.006152 -8.252409 2.066679
-3.059443 -8.241115 2.068484
-3.115809 -8.237679 2.072320
-3.172598 -8.234770 2.076381
-3.230180 -8.233287 2.080894
-3.287862 -8.231407 2.085407
-3.346743 -8.231836 2.090596
-3.403147 -8.225551 2.094206
-3.459600 -8.218882 2.097816
-3.520315 -8.221681 2.103909
-3.581194 -8.224044 2.110000
-3.637503 -8.215278 2.113385
-3.693439 -8.205241 2.116544
-3.751821 -8.200144 2.121056
-3.811510 -8.197288 2.126246
-3.857991 -8.165818 2.124215
-2.605753 -5.427935 1.427015
-2.654375 -5.443371 1.435137
-2.686429 -5.424362 1.434461
-2.865363 -5.697629 1.509596
-2.874582 -5.629612 1.496509
-2.852150 -5.502014 1.467854
-2.844589 -5.405947 1.447322
-2.850179 -5.336826 1.433784
-2.526027 -4.660513 1.260273
-2.548945 -4.634681 1.257566
-2.580656 -4.624909 1.259145
-2.620019 -4.628490 1.264335
-2.664857 -4.641055 1.272006
-2.702106 -4.639771 1.276067
-2.751324 -4.658340 1.285544
-2.786361 -4.652237 1.288477
-2.823447 -4.649210 1.292313
-2.858559 -4.642584 1.295246
-2.894212 -4.636528 1.298405
-2.932501 -4.634326 1.302692
-2.973500 -4.635929 1.308107
-3.007198 -4.625765 1.310363
-3.037668 -4.610481 1.311266
-3.077257 -4.608772 1.316004
-3.118576 -4.609171 1.321419
-3.146799 -4.589950 1.321419
-3.177681 -4.574556 1.322547
-3.204569 -4.553378 1.322096
-3.224532 -4.522523 1.318937
-3.248229 -4.497123 1.317358
-3.285538 -4.490476 1.321194
-3.332167 -4.496064 1.328640
-3.370801 -4.490339 1.332927
-3.413616 -4.489738 1.338793
-3.451202 -4.481833 1.342629
-3.488819 -4.473634 1.346464
-3.527672 -4.466671 1.350751
-3.561096 -4.452551 1.353008
-3.699301 -4.567668 1.393847
-3.754433 -4.578033 1.403775
-3.773119 -4.543666 1.400390
-3.831642 -4.556973 1.411446
-3.843746 -4.514829 1.405805
-3.802060 -4.410714 1.381212
-3.824569 -4.382163 1.379632
-3.942966 -4.462297 1.411672
-3.987157 -4.456901 1.417538
-4.019660 -4.438130 1.419343
-4.065247 -4.433491 1.425661
-5.903426 -6.360161 2.042311
-4.168707 -4.435813 1.442358
-4.166306 -4.379090 1.432430
-4.232287 -4.394148 1.445516
-4.262569 -4.371585 1.446645
-4.281786 -4.337720 1.444163
-5.840226 -5.844943 1.946192
-5.862126 -5.795298 1.941680
-5.865517 -5.727905 1.931301
-4.959721 -4.784000 1.628503
-4.951606 -4.717854 1.616545
-4.959181 -4.667348 1.609776
-4.945636 -4.597689 1.596464
-4.947207 -4.542871 1.588115
-4.949016 -4.488863 1.579993
-4.956877 -4.440857 1.573901
-4.973091 -4.400673 1.570516
-5.017601 -4.385466 1.575931
-5.073171 -4.379428 1.584731
-5.134044 -4.377298 1.595110
-5.195080 -4.374585 1.605489
-5.260020 -4.374402 1.616996
-5.742922 -4.716822 1.753729
-5.752086 -4.665536 1.747862
-5.747153 -4.603351 1.737935
-5.744730 -4.543821 1.728909
-5.731047 -4.476099 1.716725
-5.732950 -4.421212 1.709279
-5.725870 -4.359978 1.699352
-5.717477 -4.298413 1.689198
-5.715586 -4.242342 1.681075
-5.700651 -4.177243 1.669343
-5.702497 -4.125052 1.662574
-5.699162 -4.069599 1.654451
-5.688197 -4.009290 1.644298
-5.681505 -3.952609 1.635498
-5.670318 -3.893404 1.625570
-5.673941 -3.844872 1.619929
-5.663417 -3.787235 1.610453
-5.654840 -3.731482 1.601653
-5.649058 -3.678104 1.593756
-5.638737 -3.622305 1.584731
-5.631237 -3.568859 1.576608
-5.625772 -3.517192 1.569162
-5.622374 -3.467261 1.562393
-5.623569 -3.420543 1.556978
-5.621061 -3.371937 1.550661
-5.617332 -3.322995 1.544117
-5.611532 -3.273243 1.537123
-5.609555 -3.226118 1.531256
-5.605518 -3.178180 1.524939
-5.607907 -3.134216 1.520426
-5.608262 -3.089403 1.515462
-5.589444 -3.034474 1.505534
-5.577896 -2.984031 1.497637
-5.577142 -2.939752 1.492673
-5.583837 -2.899638 1.489740
-5.572904 -2.850675 1.482294
-5.565062 -2.803710 1.475751
-5.563836 -2.760415 1.471013
-5.559662 -2.715957 1.465598
-5.562176 -2.675034 1.461988
-5.557354 -2.630847 1.456572
-5.547785 -2.584762 1.450029
-5.544945 -2.542143 1.445291
-5.541791 -2.499656 1.440553
-5.542778 -2.459281 1.436942
-5.456874 -2.381177 1.411446
-5.337101 -2.290001 1.377602
-5.327716 -2.247361 1.371735
-5.337806 -2.213135 1.370833
-5.510962 -2.245438 1.410769
-5.513783 -2.207234 1.408062
-5.513624 -2.168010 1.404677
-5.516827 -2.130276 1.402195
-5.508844 -2.088439 1.397006
-5.512424 -2.051198 1.394749
-5.510266 -2.011987 1.391139
-5.497746 -1.969264 1.385047
-5.486749 -1.927416 1.379407
-5.485577 -1.889270 1.376248
-5.480453 -1.849964 1.372186
-5.480602 -1.812629 1.369479
-5.475866 -1.773859 1.365643
-5.474576 -1.736395 1.362710
-5.467451 -1.697279 1.358423
-5.460984 -1.658600 1.354361
-5.467323 -1.623951 1.353459
-5.468765 -1.587927 1.351428
-5.466222 -1.550882 1.348495
-5.464370 -1.514188 1.345788
-5.459453 -1.476812 1.342403
-5.454283 -1.439554 1.339019
-5.450748 -1.402901 1.336085
-5.444136 -1.365633 1.332475
-5.452413 -1.332203 1.332475
-5.462380 -1.299174 1.332927
-5.445572 -1.259918 1.327060
-5.421836 -1.219420 1.319614
-5.419699 -1.184048 1.317358
-5.405897 -1.146321 1.312394
-5.364164 -1.103111 1.300887
-0.000000 -0.000000 0.000000
-0.000000 -0.000000 0.000000
-0.000000 -0.000000 0.000000
-0.000000 -0.000000 0.000000
-0.000000 -0.000000 0.000000
-0.000000 -0.000000 0.000000
-0.000000 -0.000000 0.000000
-0.000000 -0.000000 0.000000
-0.000000 -0.000000 0.000000
-0.000000 -0.000000 0.000000
-0.000000 -0.000000 0.000000
-0.000000 -0.000000 0.000000
-0.000000 -0.000000 0.000000
-0.000000 -0.000000 0.000000
-0.000000 -0.000000 0.000000
-0.000000 -0.000000 0.000000
-0.000000 -0.000000 0.000000
-0.000000 -0.000000 0.000000
-0.000000 -0.000000 0.000000
-0.000000 -0.000000 0.000000
-0.000000 -0.000000 0.000000
-0.000000 -0.000000 0.000000
-0.000000 -0.000000 0.000000
-0.000000 -0.000000 0.000000
-0.000000 -0.000000 0.000000
-0.000000 -0.000000 0.000000
-0.000000 -0.000000 0.000000
-0.000000 -0.000000 0.000000
-0.000000 -0.000000 0.000000
-0.000000 -0.000000 0.000000
-0.000000 -0.000000 0.000000
-0.000000 -0.000000 0.000000
-0.000000 -0.000000 0.000000
-0.000000 0.000000 0.000000
-0.000000 0.000000 0.000000
-0.000000 0.000000 0.000000
-0.000000 0.000000 0.000000
-0.000000 0.000000 0.000000
-0.000000 0.000000 0.000000
-0.000000 0.000000 0.000000
-0.000000 0.000000 0.000000
-0.000000 0.000000 0.000000
-0.000000 0.000000 0.000000
-0.000000 0.000000 0.000000
-0.000000 0.000000 0.000000
-0.000000 0.000000 0.000000
-0.000000 0.000000 0.000000
-0.000000 0.000000 0.000000
-0.000000 0.000000 0.000000
-0.000000 0.000000 0.000000
-0.000000 0.000000 0.000000
-0.000000 0.000000 0.000000
-0.000000 0.000000 0.000000
-0.000000 0.000000 0.000000
-0.000000 0.000000 0.000000
-0.000000 0.000000 0.000000
-0.000000 0.000000 0.000000
-0.000000 0.000000 0.000000
-0.000000 0.000000 0.000000
-0.000000 0.000000 0.000000
-0.000000 0.000000 0.000000
-0.000000 0.000000 0.000000
-0.000000 0.000000 0.000000
-0.000000 0.000000 0.000000
-0.000000 0.000000 0.000000
-0.000000 0.000000 0.000000
-0.000000 0.000000 0.000000
-0.000000 0.000000 0.000000
-0.000000 0.000000 0.000000
-0.000000 0.000000 0.000000
-0.000000 0.000000 0.000000
-0.000000 0.000000 0.000000
-0.000000 0.000000 0.000000
-0.000000 0.000000 0.000000
-0.000000 0.000000 0.000000
-0.000000 0.000000 0.000000
-0.000000 0.000000 0.000000
-0.000000 0.000000 0.000000
-0.000000 0.000000 0.000000
-0.000000 0.000000 0.000000
-0.000000 0.000000 0.000000
-0.000000 0.000000 0.000000
-0.000000 0.000000 0.000000
-0.000000 0.000000 0.000000
-0.000000 0.000000 0.000000
-0.000000 0.000000 0.000000
-0.000000 0.000000 0.000000
-0.000000 0.000000 0.000000
-0.000000 0.000000 0.000000
-0.000000 0.000000 0.000000
-0.000000 0.000000 0.000000
-0.000000 0.000000 0.000000
-0.000000 0.000000 0.000000
-0.000000 0.000000 0.000000
-0.000000 0.000000 0.000000
-0.000000 0.000000 0.000000
-0.000000 0.000000 0.000000
-0.000000 0.000000 0.000000
-0.000000 0.000000 0.000000
-0.000000 0.000000 0.000000
-0.000000 0.000000 0.000000
-0.000000 0.000000 0.000000
-0.000000 0.000000 0.000000
-0.000000 0.000000 0.000000
-0.000000 0.000000 0.000000
-5.094610 2.445816 1.062361
-5.077738 2.476168 1.062003
-5.123287 2.537393 1.074364
-5.126081 2.578060 1.078126
-5.118929 2.613937 1.079917
-5.109782 2.648918 1.081350
-5.104752 2.686175 1.083679
-5.100324 2.723932 1.086187
-5.093895 2.760799 1.088337
-5.087205 2.797690 1.090487
-5.100016 2.845624 1.096757
-5.099585 2.886552 1.100340
-5.099697 2.928072 1.104102
-5.096939 2.968217 1.107327
-5.095575 3.009438 1.110909
-5.096428 3.052270 1.115030
-5.086855 3.089099 1.117000
-5.077022 3.125925 1.118971
-5.077778 3.169517 1.123271
-5.079853 3.214287 1.127928
-5.078256 3.257077 1.131870
-5.068075 3.294609 1.134019
-5.063375 3.335925 1.137423
-5.064906 3.381676 1.142260
-5.067695 3.428673 1.147455
-5.062792 3.470826 1.151038
-5.054330 3.510803 1.153904
-5.053615 3.556467 1.158562
-5.044516 3.596544 1.161429
-5.051069 3.648161 1.167878
-5.050825 3.695347 1.172894
-5.039123 3.734467 1.175402
-5.019261 3.767678 1.176118
-5.013281 3.811502 1.180060
-5.022543 3.867394 1.187584
-5.022773 3.916889 1.193137
-5.017950 3.962875 1.197616
-5.015056 4.010791 1.202632
-5.011762 4.058821 1.207648
-5.017197 4.114444 1.214814
-5.018352 4.167145 1.221084
-5.006245 4.209253 1.224309
-5.008045 4.263483 1.230937
-5.002659 4.312113 1.235953
-4.991675 4.356309 1.239715
-4.983285 4.403138 1.244194
-4.979642 4.454618 1.249926
-4.979200 4.509520 1.256555
-4.985524 4.571230 1.264975
-4.978295 4.621142 1.270170
-4.957734 4.659011 1.272141
-4.952579 4.711717 1.278052
-4.967516 4.784323 1.289159
-4.958498 4.834627 1.294355
-4.947649 4.883618 1.299192
-4.941952 4.938220 1.305462
-4.940612 4.997830 1.312986
-4.930477 5.049165 1.318360
-4.922630 5.103394 1.324451
-4.927198 5.171247 1.333946
-4.918979 5.226453 1.340216
-4.920317 5.292559 1.349173
-4.913041 5.350183 1.355981
-4.907225 5.410100 1.363326
-4.891008 5.459157 1.367983
-4.837856 5.466965 1.362609
-4.779613 5.468402 1.355802
-4.719606 5.467098 1.348457
-4.659796 5.465263 1.341112
-4.585609 5.445596 1.329646
-4.528200 5.444890 1.322839
-4.472847 5.445967 1.316569
-4.415792 5.444278 1.309761
-4.350929 5.432114 1.300625
-4.304697 5.442506 1.296863
-4.225794 5.410672 1.283427
-4.177492 5.417025 1.278948
-4.120329 5.411250 1.271782
-4.065761 5.408124 1.265333
-4.009041 5.401373 1.258167
-3.956629 5.399686 1.252255
-3.904390 5.397560 1.246344
-3.850611 5.392595 1.239894
-3.797607 5.387979 1.233624
-3.740310 5.376456 1.225921
-3.689983 5.374166 1.220367
-3.632097 5.360060 1.212306
-3.583276 5.358531 1.207111
-3.535695 5.358248 1.202274
-3.479125 5.343570 1.194391
-3.434571 5.346608 1.190450
-3.390637 5.350133 1.186688
-3.345225 5.350818 1.182389
-3.290634 5.336077 1.174865
-0.183218 0.303354 0.097841
-0.187428 0.314595 0.099991
-0.185495 0.315739 0.099991
-0.182066 0.314322 0.099453
-0.000000 0.000000 0.000000
-0.000000 0.000000 0.000000
-0.000000 0.000000 0.000000
-0.000000 0.000000 0.000000
-0.000000 0.000000 0.000000
-0.000000 0.000000 0.000000
-0.000000 0.000000 0.000000
-0.000000 0.000000 0.000000
-0.000000 0.000000 0.000000
-0.000000 0.000000 0.000000
-0.000000 0.000000 0.000000
-0.000000 0.000000 0.000000
-0.000000 0.000000 0.000000
-0.000000 0.000000 0.000000
-0.000000 0.000000 0.000000
-0.000000 0.000000 0.000000
-0.000000 0.000000 0.000000
-0.000000 0.000000 0.000000
-0.000000 0.000000 0.000000
-0.000000 0.000000 0.000000
-0.000000 0.000000 0.000000
-0.000000 0.000000 0.000000
-0.000000 0.000000 0.000000
-0.000000 0.000000 0.000000
-0.000000 0.000000 0.000000
-0.000000 0.000000 0.000000
-0.000000 0.000000 0.000000
-0.000000 0.000000 0.000000
-0.000000 0.000000 0.000000
-0.000000 0.000000 0.000000
-0.000000 0.000000 0.000000
-0.000000 0.000000 0.000000
-0.000000 0.000000 0.000000
-0.000000 0.000000 0.000000
-0.000000 0.000000 0.000000
-0.000000 0.000000 0.000000
-0.000000 0.000000 0.000000
-0.000000 0.000000 0.000000
-0.000000 0.000000 0.000000
-0.000000 0.000000 0.000000
-0.000000 0.000000 0.000000
-0.000000 0.000000 0.000000
-0.000000 0.000000 0.000000
-0.000000 0.000000 0.000000
-0.000000 0.000000 0.000000
-0.000000 0.000000 0.000000
-0.000000 0.000000 0.000000
-0.000000 0.000000 0.000000
-0.000000 0.000000 0.000000
-0.000000 0.000000 0.000000
-0.000000 0.000000 0.000000
-0.000000 0.000000 0.000000
-0.000000 0.000000 0.000000
-0.000000 0.000000 0.000000
-0.068282 0.359774 0.099991
-0.066615 0.363087 0.100528
-0.067530 0.380917 0.103753
-0.065360 0.382293 0.103932
-0.063339 0.384627 0.104290
-0.061291 0.386951 0.104648
-0.059066 0.388292 0.104828
-0.057987 0.397405 0.106440
-0.058881 0.421129 0.110739
-0.058290 0.436104 0.113427
-0.055613 0.436454 0.113427
-0.052934 0.436787 0.113427
-0.049218 0.428309 0.111814
-0.044628 0.411004 0.108590
-0.040663 0.397572 0.106082
-0.037544 0.390961 0.104828
-0.034781 0.387265 0.104111
-0.031979 0.382571 0.103215
-0.029316 0.378837 0.102499
-0.026189 0.368217 0.100528
-0.023661 0.364445 0.099811
-0.021303 0.362619 0.099453
-0.019078 0.362743 0.099453
-0.016900 0.363836 0.099632
-0.014710 0.364916 0.099811
-0.012397 0.363033 0.099453
-0.010200 0.364086 0.099632
-0.007966 0.364141 0.099632
-0.005732 0.364183 0.099632
-0.003472 0.362244 0.099274
-0.001236 0.360291 0.098916
0.000974 0.361276 0.099095
0.003191 0.361263 0.099095
0.005419 0.362220 0.099274
0.007659 0.363164 0.099453
0.009887 0.363110 0.099453
0.012145 0.364026 0.099632
0.014450 0.365911 0.099991
0.016820 0.368764 0.100528
0.019130 0.369637 0.100707
0.021505 0.371477 0.101065
0.023963 0.374284 0.101603
0.026391 0.376093 0.101961
0.028770 0.376905 0.102140
0.031316 0.379664 0.102678
0.033645 0.379465 0.102678
0.036152 0.381211 0.103036
0.038874 0.384898 0.103753
0.041337 0.385631 0.103932
0.043702 0.385370 0.103932
0.046180 0.386072 0.104111
0.048668 0.386758 0.104290
0.052299 0.396209 0.106082
0.055125 0.398806 0.106619
0.058949 0.408201 0.108410
0.062028 0.411725 0.109127
0.065452 0.417170 0.110202
0.068322 0.418704 0.110560
0.071375 0.421188 0.111098
0.074629 0.424620 0.111814
0.078969 0.433838 0.113606
0.082707 0.439149 0.114681
0.084843 0.435735 0.114143
0.088855 0.441961 0.115397
0.092157 0.444299 0.115935
0.095085 0.444688 0.116114
0.098021 0.445057 0.116293
0.100750 0.444447 0.116293
0.102812 0.440945 0.115755
0.105289 0.439348 0.115576
0.108914 0.442518 0.116293
0.111388 0.440887 0.116114
0.114336 0.441148 0.116293
0.117291 0.441389 0.116472
0.120253 0.441611 0.116651
0.124008 0.444658 0.117368
0.127001 0.444836 0.117547
0.130276 0.445938 0.117905
0.133568 0.447017 0.118263
0.137163 0.449014 0.118801
0.140498 0.450044 0.119159
0.143553 0.450111 0.119338
0.146615 0.450158 0.119517
0.150606 0.452987 0.120234
0.153697 0.452987 0.120413
0.156473 0.452036 0.120413
0.159569 0.451996 0.120592
0.162009 0.450081 0.120413
0.165104 0.450003 0.120592
0.168547 0.450827 0.120951
0.172005 0.451624 0.121309
0.176188 0.454233 0.122026
0.180049 0.455891 0.122563
0.183573 0.456605 0.122921
0.194520 0.475521 0.126862
0.201946 0.485229 0.129012
0.201485 0.475819 0.127400
0.205562 0.477287 0.127937
0.208880 0.476919 0.128116
0.211404 0.474729 0.127937
0.214717 0.474320 0.128116
0.219669 0.477467 0.129012
0.223839 0.478786 0.129550
0.228033 0.480073 0.130087
0.231825 0.480438 0.130445
0.236062 0.481660 0.130983
0.240759 0.483729 0.131699
0.246373 0.487517 0.132774
0.250702 0.488625 0.133312
0.256863 0.493192 0.134566
0.262175 0.495961 0.135461
0.266603 0.496946 0.135999
0.270584 0.497031 0.136357
0.274103 0.496224 0.136536
0.275226 0.491096 0.135820
0.278234 0.489398 0.135820
0.284170 0.492801 0.136895
0.284713 0.486797 0.135999
0.286194 0.482499 0.135461
0.000000 0.000000 0.000000
0.000000 0.000000 0.000000
0.000000 0.000000 0.000000
0.000000 0.000000 0.000000
3.047054 4.815444 1.070960
3.056367 4.765185 1.064152
3.098949 4.766965 1.068631
3.133010 4.755256 1.070243
3.171413 4.749854 1.073289
3.214828 4.751494 1.077947
3.257269 4.751156 1.082246
3.298705 4.748859 1.086187
3.336272 4.740599 1.088875
3.375575 4.734460 1.092099
3.421838 4.737588 1.097474
3.466523 4.737945 1.102311
3.509585 4.735558 1.106610
3.548614 4.727312 1.109655
3.591245 4.723464 1.113776
3.635162 4.720831 1.118254
3.679181 4.717835 1.122733
3.721471 4.712160 1.126674
3.765059 4.707679 1.130974
3.807492 4.701311 1.134915
3.849365 4.693838 1.138677
3.899458 4.695868 1.144768
3.952885 4.701225 1.151755
3.992497 4.689620 1.154800
4.052664 4.701554 1.163578
4.082083 4.677340 1.163757
4.123732 4.666952 1.167340
4.175899 4.667963 1.173790
4.226253 4.666320 1.179701
4.317292 4.708475 1.196541
4.375546 4.713627 1.204424
4.422574 4.706050 1.209260
4.473740 4.702351 1.215172
4.531850 4.705287 1.222875
4.578490 4.695710 1.227533
4.621037 4.681534 1.231116
4.679572 4.683022 1.238819
4.728506 4.674282 1.244015
4.773284 4.660992 1.248135
4.828697 4.657575 1.254943
4.880686 4.650259 1.260854
4.947092 4.655966 1.270349
5.015912 4.663043 1.280381
5.077757 4.662794 1.288622
5.130316 4.653365 1.294534
5.190276 4.650033 1.302237
5.262173 4.656572 1.312807
5.309904 4.641033 1.317464
5.372532 4.637944 1.325705
5.433076 4.632344 1.333408
5.479456 4.614131 1.337708
5.580271 4.640826 1.354906
5.619284 4.615242 1.357414
5.694100 4.618488 1.368342
5.762255 4.615452 1.377657
5.814384 4.598933 1.383211
5.856448 4.574072 1.386436
5.864151 4.522428 1.381778
5.868310 4.468476 1.376403
5.864953 4.409323 1.369417
5.851613 4.343342 1.360280
5.843240 4.281764 1.352398
5.852665 4.233717 1.348636
5.840106 4.170278 1.340037
5.831814 4.110554 1.332513
5.823818 4.051651 1.325168
5.820186 3.996345 1.318898
5.821795 3.945101 1.313882
5.818090 3.890706 1.307791
5.827075 3.845178 1.304566
5.796150 3.773912 1.292742
5.793540 3.721788 1.287189
5.793833 3.671946 1.282352
5.792065 3.621198 1.277157
5.798266 3.575775 1.273753
5.792363 3.523254 1.267841
5.789409 3.472965 1.262646
5.796216 3.428859 1.259600
5.792504 3.378850 1.254405
5.784986 3.327053 1.248493
5.782187 3.278389 1.243656
5.767845 3.223643 1.236491
5.765114 3.175845 1.231833
5.768930 3.131959 1.228608
5.767221 3.085361 1.224309
5.763418 3.037984 1.219651
5.760125 2.991224 1.215172
5.759978 2.946412 1.211410
5.734022 2.888873 1.202453
5.737540 2.846637 1.199587
5.746943 2.807490 1.197974
5.745445 2.763217 1.194212
5.740952 2.717805 1.189913
5.733444 2.671305 1.185076
5.727371 2.625820 1.180597
5.720957 2.580511 1.176118
5.704311 2.530989 1.169669
5.713422 2.493185 1.168415
5.738557 2.462350 1.170386
6.105240 2.575525 1.239894
6.162730 2.555357 1.248135
6.295815 2.565406 1.271245
6.373541 2.551603 1.283427
6.452248 2.537301 1.295788
6.552124 2.530284 1.312269
6.662272 2.525973 1.330721
6.760625 2.515943 1.346844
6.839696 2.497709 1.359205
6.963251 2.494532 1.380165
7.065672 2.482427 1.397005
7.191457 2.477172 1.418323
7.268971 2.454094 1.430326
7.423992 2.455814 1.457198
7.488522 2.426294 1.466693
7.617671 2.416610 1.488549
7.782681 2.416523 1.517212
7.934792 2.410495 1.543367
10.728576 3.187869 2.071309
10.379484 3.014913 2.001442
4.236657 1.201754 0.835204
4.226886 1.171004 0.831980
5.617612 1.519631 1.092995
5.630636 1.486138 1.093711
5.634885 1.450334 1.092816
5.630319 1.412378 1.090308
5.620722 1.373364 1.086904
5.622343 1.337255 1.085650
5.619899 1.300290 1.083679
5.615294 1.262973 1.081350
5.613328 1.226393 1.079559
5.602461 1.188046 1.076155
5.600009 1.151664 1.074364
5.604076 1.116704 1.073826
5.605027 1.081177 1.072751
5.597049 1.044056 1.070064
5.591731 1.007597 1.067914
5.586177 0.971244 1.065765
5.578448 0.934670 1.063257
5.586992 0.900894 1.063794
5.584637 0.865390 1.062361
5.582057 0.829947 1.060928
5.553929 0.790958 1.054837
1.883682 0.255699 0.379458
1.882289 0.243755 0.378920
1.883749 0.232201 0.378920
1.882207 0.220293 0.378383
1.881568 0.208522 0.378025
1.883790 0.197076 0.378204
1.883006 0.185320 0.377845
1.886067 0.173944 0.378204
1.885138 0.162199 0.377845
1.886098 0.150628 0.377845
1.886006 0.138980 0.377666
1.885841 0.127338 0.377487
1.884623 0.115643 0.377129
1.884315 0.104022 0.376950
1.880005 0.092214 0.376054
1.875621 0.080463 0.375158
1.876079 0.068953 0.375158
1.873517 0.057348 0.374621
1.869900 0.045752 0.373904
1.867194 0.034222 0.373367
1.870320 0.022802 0.373904
1.860587 0.011260 0.372113
1.860621 -0.000157 0.372113
1.861569 -0.011579 0.372292
1.865398 -0.023047 0.373009
1.862270 -0.034440 0.372471
1.868909 -0.046031 0.373725
1.861707 -0.057290 0.372471
1.868203 -0.068962 0.373725
1.868728 -0.080465 0.373904
1.860337 -0.091548 0.372471
1.863670 -0.103176 0.373188
1.865948 -0.114789 0.373725
1.867172 -0.126368 0.374083
1.848700 -0.136529 0.370859
1.849789 -0.148026 0.371217
1.852767 -0.159708 0.371934
1.855671 -0.171433 0.372650
1.850667 -0.182433 0.371934
1.843642 -0.193173 0.370859
1.840466 -0.204266 0.370501
1.842110 -0.215897 0.371038
1.836844 -0.226716 0.370321
1.845176 -0.239242 0.372113
1.845623 -0.250823 0.372471
1.848920 -0.262832 0.373367
1.846299 -0.274028 0.373188
1.845555 -0.285501 0.373367
1.821426 -0.293237 0.369247
1.812800 -0.303276 0.367992
1.808966 -0.314058 0.367634
1.834119 -0.330013 0.372650
1.831093 -0.341081 0.372471
1.827999 -0.352124 0.372292
1.820014 -0.362186 0.371217
1.818721 -0.373544 0.371396
1.815432 -0.384493 0.371217
1.815923 -0.396252 0.371755
1.817298 -0.408247 0.372471
1.814759 -0.419390 0.372471
1.813108 -0.430744 0.372650
1.815211 -0.443025 0.373546
1.809595 -0.453439 0.373009
1.804873 -0.464045 0.372650
1.803894 -0.475611 0.373009
1.803792 -0.487439 0.373546
1.806457 -0.500069 0.374621
1.801461 -0.510608 0.374263
1.889018 -0.547908 0.391461
2.512003 -0.744938 0.510413
2.969718 -0.900309 0.598374
2.966957 -0.919387 0.598911
2.963136 -0.938168 0.599270
2.961069 -0.957541 0.599986
2.965415 -0.979081 0.601957
2.961217 -0.997885 0.602315
2.961552 -1.018273 0.603569
2.958033 -1.037401 0.604106
2.953465 -1.056194 0.604465
2.912724 -1.061841 0.597836
0.000000 -0.000000 0.000000
0.000000 -0.000000 0.000000
0.000000 -0.000000 0.000000
0.000000 -0.000000 0.000000
0.000000 -0.000000 0.000000
2.843413 -1.156848 0.592283
2.819897 -1.167506 0.589058
2.853487 -1.201957 0.597120
2.939217 -1.259317 0.615572
2.929631 -1.276542 0.615213
2.921743 -1.294494 0.615213
2.920025 -1.315223 0.616467
2.823326 -1.292604 0.598732
2.700254 -1.256409 0.575622
2.719182 -1.285558 0.580997
2.709468 -1.301367 0.580638
2.691704 -1.313226 0.578668
2.687123 -1.331463 0.579384
2.690330 -1.353670 0.581713
2.689859 -1.374178 0.583326
2.688365 -1.394277 0.584759
2.685855 -1.413952 0.586013
2.677996 -1.430869 0.586192
2.665706 -1.445400 0.585475
2.662822 -1.465046 0.586729
2.657219 -1.483274 0.587446
2.655775 -1.503911 0.589058
2.646497 -1.520178 0.589058
2.649873 -1.543812 0.591745
2.646281 -1.563543 0.592999
2.640858 -1.582278 0.593895
2.632782 -1.599473 0.594253
2.636324 -1.623848 0.597120
2.625476 -1.639472 0.596941
2.627008 -1.662914 0.599449
0.000000 -0.000000 0.000000
2.911638 -1.893366 0.665733
2.904073 -1.913901 0.666628
2.895549 -1.933868 0.667345
2.882813 -1.951048 0.667166
2.877280 -1.973149 0.668599
2.364889 -1.643441 0.557708
2.357979 -1.660185 0.558424
2.342140 -1.670625 0.557170
2.880635 -2.081175 0.680422
2.869400 -2.099972 0.680781
2.863575 -2.122810 0.682393
2.853644 -2.142702 0.683110
2.850625 -2.167910 0.685439
2.845845 -2.191962 0.687409
2.839325 -2.214826 0.689021
2.834949 -2.239521 0.691171
2.827301 -2.261789 0.692604
2.818722 -2.283427 0.693858
2.810745 -2.305669 0.695292
2.807143 -2.331670 0.697800
2.791277 -2.347584 0.697441
2.782814 -2.369768 0.698874
2.777910 -2.395147 0.701203
2.769834 -2.417967 0.702816
2.757895 -2.437522 0.703532
2.752420 -2.462924 0.705861
2.746737 -2.488350 0.708190
2.737945 -2.511140 0.709802
2.721764 -2.527223 0.709623
2.711942 -2.549265 0.711056
2.700527 -2.569925 0.712131
2.679746 -2.581670 0.710877
2.683581 -2.617292 0.715893
2.685679 -2.651675 0.720551
2.678407 -2.677143 0.722880
2.656396 -2.687930 0.721447
2.628854 -2.692919 0.718581
2.604766 -2.701210 0.716610
2.575246 -2.703611 0.713206
2.540400 -2.700021 0.708369
2.522445 -2.714117 0.708011
2.487774 -2.709981 0.703174
2.480355 -2.735395 0.705682
2.433976 -2.717594 0.697620
2.385955 -2.697117 0.689021
2.333097 -2.670230 0.678989
2.289019 -2.652477 0.671286
2.266317 -2.658987 0.669495
0.000000 -0.000000 0.000000
0.000000 -0.000000 0.000000
0.000000 -0.000000 0.000000
0.000000 -0.000000 0.000000
0.000000 -0.000000 0.000000
2.550882 -3.225896 0.782177
0.469232 -0.602492 0.172365
0.456512 -0.593676 0.169678
2.483322 -3.262128 0.779848
2.439015 -3.245067 0.772503
0.444335 -0.600398 0.169320
2.380397 -3.249362 0.766771
0.436356 -0.605009 0.169141
0.432064 -0.606874 0.168962
0.431167 -0.613534 0.169857
0.427394 -0.616168 0.169857
0.425277 -0.621212 0.170395
0.425321 -0.629510 0.171649
0.420903 -0.631290 0.171470
0.417022 -0.633861 0.171470
0.422253 -0.650422 0.174515
0.414531 -0.647207 0.173261
0.410025 -0.648908 0.173082
0.405514 -0.650577 0.172903
0.400998 -0.652216 0.172724
0.394943 -0.651302 0.172007
0.389421 -0.651182 0.171470
0.381409 -0.646786 0.170037
0.351649 -0.604929 0.160721
0.343515 -0.599400 0.159109
0.336918 -0.596362 0.158034
0.330852 -0.594125 0.157138
0.323401 -0.589250 0.155705
0.315554 -0.583443 0.154093
0.311039 -0.583633 0.153734
0.303322 -0.577699 0.152122
0.299772 -0.579549 0.152122
0.296210 -0.581377 0.152122
0.292194 -0.582305 0.151943
0.288616 -0.584087 0.151943
0.284163 -0.584080 0.151585
0.280147 -0.584926 0.151405
0.276553 -0.586634 0.151405
0.272116 -0.586536 0.151047
0.266462 -0.583723 0.150151
0.262875 -0.585347 0.150151
0.257282 -0.582453 0.149256
0.251735 -0.579513 0.148360
0.247787 -0.580142 0.148181
0.244222 -0.581652 0.148181
0.235371 -0.570417 0.145673
0.234095 -0.577317 0.146748
0.229451 -0.576003 0.146210
0.225552 -0.576484 0.146031
0.220592 -0.574186 0.145314
0.217414 -0.576449 0.145494
0.213186 -0.575928 0.145135
0.210999 -0.580922 0.145852
0.208426 -0.584984 0.146389
0.204833 -0.586252 0.146389
0.200911 -0.586567 0.146210
0.197308 -0.587789 0.146210
0.192462 -0.585253 0.145494
0.188564 -0.585487 0.145314
0.184670 -0.585695 0.145135
0.181073 -0.586817 0.145135
0.177469 -0.587917 0.145135
0.174419 -0.590881 0.145494
0.170515 -0.590995 0.145314
0.166348 -0.590138 0.144956
0.162198 -0.589251 0.144598
0.158065 -0.588336 0.144240
0.153950 -0.587393 0.143881
0.149852 -0.586421 0.143523
0.146251 -0.587329 0.143523
0.142177 -0.586304 0.143165
0.138805 -0.588122 0.143344
0.134972 -0.588005 0.143165
0.131361 -0.588822 0.143165
0.127746 -0.589617 0.143165
0.124534 -0.592314 0.143523
0.121096 -0.594031 0.143702
0.117064 -0.592833 0.143344
0.114916 -0.601268 0.144777
0.112128 -0.606797 0.145673
0.109101 -0.611347 0.146389
0.106191 -0.616851 0.147285
0.103056 -0.621372 0.148002
0.100339 -0.628791 0.149256
0.097082 -0.633284 0.149972
0.094354 -0.641652 0.151405
0.090692 -0.644167 0.151764
0.087403 -0.649585 0.152659
0.083796 -0.653036 0.153197
0.082086 -0.672089 0.156601
0.077501 -0.668672 0.155884
0.074050 -0.675001 0.156959
0.070010 -0.676421 0.157138
0.065858 -0.676838 0.157138
0.060613 -0.665474 0.154988
0.057208 -0.673675 0.156421
0.053073 -0.674013 0.156421
0.048134 -0.663534 0.154451
0.043862 -0.660872 0.153913
0.040597 -0.673894 0.156242
0.036516 -0.675113 0.156421
0.031543 -0.658619 0.153376
0.027886 -0.667647 0.154988
0.023936 -0.671738 0.155705
0.019937 -0.675805 0.156421
0.015691 -0.671981 0.155705
0.011363 -0.661244 0.153734
0.007343 -0.664253 0.154272
0.003300 -0.669204 0.155167
-0.000804 -0.673147 0.155884
-0.004913 -0.669195 0.155167
-0.009042 -0.671119 0.155526
-0.013195 -0.673019 0.155884
-0.017324 -0.672925 0.155884
-0.021126 -0.661989 0.153913
-0.025152 -0.660864 0.153734
-0.029207 -0.660697 0.153734
-0.032831 -0.651661 0.152122
-0.033280 -0.586612 0.140298
-0.036998 -0.588361 0.140657
-0.040476 -0.586160 0.140298
-0.559519 -7.625983 1.425668
-0.607313 -7.635156 1.427997
-0.656163 -7.654811 1.432297
-0.654131 -7.116701 1.334662
-0.762516 -7.773471 1.455586
-0.819676 -7.859649 1.472246
-0.872095 -7.892609 1.479233
-0.932239 -7.987762 1.497685
-0.980394 -7.975056 1.496431
-1.042779 -8.073294 1.515599
-1.095857 -8.093067 1.520436
-1.154731 -8.151457 1.532439
-1.210478 -8.183148 1.539605
-1.268006 -8.223212 1.548383
-1.324981 -8.256076 1.555907
-1.398255 -8.383653 1.580988
-1.453190 -8.395273 1.584750
-1.505196 -8.389104 1.585287
-1.556104 -8.376808 1.584750
-1.606361 -8.361305 1.583675
-1.659549 -8.360942 1.585466
-1.711017 -8.351565 1.585645
-1.765074 -8.354385 1.588153
-1.817348 -8.348205 1.589049
-1.870903 -8.347457 1.591020
-1.924296 -8.345407 1.592811
-1.977280 -8.341102 1.594244
-2.029587 -8.333591 1.595140
-2.081875 -8.325754 1.596036
-2.138298 -8.333789 1.599977
-2.190894 -8.326221 1.601052
-2.239637 -8.304071 1.599440
-2.293167 -8.299656 1.601231
-2.350206 -8.307203 1.605351
-2.403322 -8.300187 1.606785
-2.458674 -8.300378 1.609651
-2.514690 -8.302084 1.612876
-2.567619 -8.293077 1.614130
-2.618456 -8.277166 1.614130
-2.673730 -8.274987 1.616817
-2.728459 -8.270572 1.619146
-2.788570 -8.281648 1.624520
-2.842208 -8.272756 1.626132
-2.897794 -8.269088 1.628820
-2.952118 -8.261343 1.630790
-3.006456 -8.253242 1.632761
-3.060121 -8.242942 1.634373
-3.118991 -8.246096 1.638673
-3.173772 -8.237820 1.640822
-3.228210 -8.228266 1.642793
-3.285568 -8.225663 1.646197
-3.341905 -8.219931 1.649063
-3.397166 -8.211089 1.651392
-3.452827 -8.202785 1.653900
-3.510836 -8.199534 1.657483
-3.569720 -8.197683 1.661424
-3.629509 -8.197217 1.665724
-3.689831 -8.197222 1.670202
-3.745378 -8.186058 1.672531
-3.802171 -8.177197 1.675397
-3.855635 -8.160830 1.676831
-2.565836 -5.344744 1.112880
-2.570565 -5.271416 1.101236
-2.568381 -5.185889 1.087083
-2.556409 -5.083009 1.069348
-2.566082 -5.025166 1.060749
-2.576953 -4.970891 1.052866
-2.562067 -4.868783 1.035131
-2.550196 -4.774859 1.019008
-2.517589 -4.644935 0.995361
-2.551255 -4.638884 0.997331
-2.586859 -4.636031 1.000018
-2.620101 -4.628633 1.001810
-4.659659 -8.116920 1.737561
-4.724719 -8.114533 1.743114
-4.787424 -8.107418 1.747772
-4.846176 -8.093084 1.750997
-4.901868 -8.073289 1.753147
-2.772192 -4.502247 0.996077
-2.800286 -4.485987 0.996256
-2.815663 -4.449596 0.992136
-2.873178 -4.479445 1.002347
-2.929556 -4.506279 1.012021
-2.954446 -4.484111 1.011125
-3.061640 -4.585372 1.037281
-3.110110 -4.596653 1.043909
-3.143261 -4.584787 1.045521
-3.163478 -4.554101 1.043013
-3.170418 -4.504831 1.036385
-3.199142 -4.486896 1.036743
-3.236978 -4.481540 1.039968
-3.267319 -4.465564 1.040864
-3.304028 -4.458081 1.043730
-3.341358 -4.451101 1.046775
-3.377536 -4.442265 1.049463
-3.418532 -4.439388 1.053583
-3.454175 -4.429192 1.056091
-3.483725 -4.411003 1.056808
-3.525469 -4.407987 1.061107
-3.567307 -4.404624 1.065406
-4.234821 -5.164040 1.249389
-4.268941 -5.140987 1.250106
-4.296607 -5.110178 1.249031
-4.317680 -5.071730 1.246164
-4.341654 -5.036943 1.244194
