# This PCD file was generated using the MATLAB® pcwrite function
# from Computer Vision Toolbox®.
# .PCD v.7 - Point Cloud Data file format
VERSION .7
FIELDS x y z
SIZE 4 4 4
TYPE F F F
COUNT 1 1 1
WIDTH 1695
HEIGHT 1
VIEWPOINT 0 0 0 1 0 0 0
POINTS 1695
DATA ascii
1.854919 -0.125546 0.463118
1.853142 -0.136854 0.462892
1.852267 -0.148222 0.462892
1.850352 -0.159502 0.462667
1.850309 -0.170941 0.462892
1.850195 -0.182386 0.463118
1.846134 -0.193433 0.462441
1.843944 -0.204650 0.462216
1.840718 -0.215735 0.461764
1.837426 -0.226788 0.461313
1.836000 -0.238058 0.461313
1.834504 -0.249319 0.461313
1.831976 -0.260434 0.461087
1.829379 -0.271527 0.460862
1.826716 -0.282599 0.460636
1.828795 -0.294419 0.461539
1.825032 -0.305314 0.461087
1.826005 -0.317005 0.461764
1.829779 -0.329234 0.463118
1.829640 -0.340811 0.463569
1.832298 -0.352950 0.464697
1.832009 -0.364565 0.465149
1.830692 -0.375994 0.465374
1.827397 -0.387019 0.465149
1.827844 -0.398846 0.465826
1.823461 -0.409628 0.465374
1.825660 -0.421902 0.466503
1.824933 -0.433546 0.466954
1.820345 -0.444274 0.466503
1.820420 -0.456144 0.467179
1.819474 -0.467789 0.467631
1.814685 -0.478449 0.467179
1.812656 -0.489828 0.467405
1.809617 -0.500941 0.467405
1.808384 -0.512565 0.467856
1.844509 -0.535027 0.477333
2.911706 -0.863277 0.735906
2.902625 -0.879997 0.735004
2.882280 -0.893183 0.731394
2.874888 -0.910264 0.730942
2.872957 -0.929084 0.731845
2.854249 -0.942424 0.728686
2.851182 -0.960851 0.729363
2.851683 -0.980543 0.730942
2.839177 -0.995767 0.729363
2.834848 -1.013825 0.729814
2.839559 -1.035200 0.732522
2.838634 -1.054637 0.733876
2.843956 -1.076514 0.736809
2.841842 -1.095695 0.737937
2.838694 -1.114534 0.738839
2.834516 -1.133015 0.739516
2.832023 -1.152219 0.740645
2.827601 -1.170692 0.741321
2.820364 -1.188020 0.741321
2.821082 -1.208753 0.743352
2.813612 -1.226040 0.743352
2.807818 -1.244069 0.743803
2.805462 -1.263673 0.745157
2.811831 -1.287346 0.748767
2.806529 -1.305807 0.749444
0.000000 -0.000000 0.000000
2.805225 -1.347314 0.753280
2.801284 -1.366635 0.754408
2.797211 -1.385959 0.755536
2.796489 -1.407034 0.757567
2.802554 -1.431695 0.761403
2.798906 -1.451554 0.762756
2.795983 -1.471874 0.764336
2.808385 -1.500472 0.769977
2.788846 -1.512107 0.767269
2.790614 -1.535291 0.770202
2.807517 -1.567095 0.777197
2.780042 -1.574218 0.772458
2.772866 -1.592701 0.773135
2.755463 -1.605274 0.771105
2.735494 -1.616208 0.768397
0.000000 -0.000000 0.000000
2.689638 -1.633985 0.761403
2.665457 -1.641777 0.757567
2.626405 -1.640052 0.749670
2.576771 -1.631140 0.738839
2.597879 -1.666900 0.747413
2.563096 -1.666885 0.740645
2.544683 -1.677222 0.738388
2.516517 -1.680907 0.733424
2.638502 -1.785821 0.770428
2.390425 -1.639519 0.703867
2.363516 -1.642488 0.699128
2.351799 -1.655838 0.698677
2.344769 -1.672499 0.699580
2.336042 -1.687995 0.700031
2.326427 -1.702872 0.700257
2.330808 -1.728133 0.704543
2.337304 -1.755265 0.709507
2.324938 -1.768395 0.709056
2.317904 -1.785598 0.710184
0.691077 -0.540200 0.235682
0.712218 -0.563747 0.242902
0.707224 -0.566890 0.242451
0.701460 -0.569380 0.241774
0.695693 -0.571821 0.241097
0.689923 -0.574212 0.240420
0.683403 -0.575927 0.239518
0.672437 -0.573796 0.237261
0.554509 -0.479342 0.202288
0.543483 -0.475691 0.199806
0.536903 -0.475792 0.198678
0.531795 -0.477129 0.198001
0.512246 -0.465344 0.192812
0.503636 -0.463213 0.191007
0.501498 -0.466957 0.191232
0.500044 -0.471359 0.191684
0.497142 -0.474419 0.191684
0.496327 -0.479487 0.192361
0.499655 -0.488643 0.194391
0.498727 -0.493753 0.195068
0.508095 -0.509197 0.199130
0.522771 -0.530315 0.204996
0.522230 -0.536300 0.205898
0.518930 -0.539495 0.205898
0.512249 -0.539143 0.204770
0.510935 -0.544403 0.205447
0.508912 -0.548955 0.205898
0.506852 -0.553502 0.206350
0.507374 -0.560931 0.207704
0.501972 -0.561857 0.207027
0.499161 -0.565656 0.207252
0.495039 -0.567975 0.207027
0.492182 -0.571739 0.207252
0.488032 -0.574007 0.207027
0.483873 -0.576245 0.206801
0.480951 -0.579952 0.207027
0.478002 -0.583645 0.207252
0.475026 -0.587324 0.207478
0.470804 -0.589467 0.207252
0.464156 -0.588525 0.206124
0.462935 -0.594433 0.207027
0.461659 -0.600347 0.207929
0.457967 -0.603169 0.207929
0.453672 -0.605189 0.207704
0.449369 -0.607179 0.207478
0.445059 -0.609139 0.207252
0.439600 -0.609491 0.206575
0.434719 -0.610591 0.206124
0.426473 -0.606877 0.204319
0.420516 -0.606284 0.203417
0.417891 -0.610459 0.203868
0.413044 -0.611399 0.203417
0.408743 -0.613112 0.203191
0.401216 -0.609917 0.201611
0.396403 -0.610735 0.201160
0.398968 -0.622991 0.203868
0.394095 -0.623781 0.203417
0.383544 -0.615450 0.200483
0.376180 -0.611988 0.198904
0.372925 -0.615117 0.199130
0.367639 -0.614888 0.198453
0.364852 -0.618809 0.198904
0.358593 -0.616829 0.197776
0.353344 -0.616484 0.197099
0.348113 -0.616098 0.196422
0.344326 -0.618223 0.196422
0.340056 -0.619470 0.196196
0.336713 -0.622401 0.196422
0.333348 -0.625315 0.196648
0.331777 -0.631657 0.197776
0.329242 -0.636274 0.198453
0.326219 -0.640017 0.198904
0.322286 -0.642007 0.198904
0.318774 -0.644845 0.199130
0.315667 -0.648539 0.199581
0.314216 -0.655731 0.200935
0.321446 -0.681419 0.207027
0.316436 -0.681612 0.206575
0.311029 -0.680885 0.205898
0.306845 -0.682780 0.205898
0.297907 -0.673965 0.203191
0.000000 -0.000000 0.000000
2.468710 -5.753371 1.482520
2.432225 -5.765718 1.481843
2.388962 -5.761636 1.477105
2.348048 -5.762654 1.473720
2.308660 -5.767005 1.471238
2.265741 -5.762024 1.466500
2.223672 -5.758552 1.462213
2.185532 -5.764801 1.460408
2.142640 -5.758017 1.455444
2.106266 -5.768310 1.454767
2.059000 -5.748110 1.446645
2.016261 -5.739497 1.441455
1.976244 -5.737945 1.438071
1.936012 -5.735195 1.434461
1.896193 -5.733093 1.431076
1.851967 -5.716818 1.424307
1.812139 -5.713217 1.420697
1.775893 -5.720507 1.419795
1.737077 -5.719179 1.416861
1.700286 -5.724126 1.415508
1.666763 -5.740065 1.416861
1.636301 -5.767053 1.420923
1.604008 -5.788249 1.423630
1.566680 -5.791400 1.422051
1.535096 -5.815974 1.425661
1.510317 -5.867738 1.435814
1.478555 -5.893902 1.439876
1.446528 -5.919898 1.443937
1.421458 -5.976048 1.455219
1.386741 -5.993199 1.457249
1.353365 -6.016802 1.460859
1.321416 -6.047834 1.466275
1.287924 -6.072982 1.470336
1.252994 -6.092221 1.473043
1.219020 -6.116992 1.477105
1.184604 -6.140617 1.480941
1.152447 -6.177458 1.487935
1.117635 -6.201670 1.491997
1.081399 -6.218968 1.494478
1.044348 -6.232212 1.496058
1.011989 -6.275050 1.504632
0.976305 -6.299432 1.508919
0.940647 -6.325539 1.513657
0.907594 -6.371699 1.523134
0.871903 -6.402245 1.529000
0.834112 -6.419067 1.531708
0.797824 -6.449202 1.537574
0.763588 -6.499450 1.548179
0.727471 -6.537900 1.556076
0.690400 -6.571307 1.562845
0.653331 -6.608382 1.570516
0.614662 -6.632637 1.575254
0.575972 -6.659577 1.580670
0.536271 -6.677552 1.584054
0.497238 -6.706948 1.590146
0.458261 -6.741948 1.597592
0.419115 -6.780610 1.605940
0.379402 -6.817098 1.613837
0.338533 -6.838758 1.618350
0.298217 -6.878664 1.627150
0.257023 -6.907624 1.633467
0.215729 -6.944126 1.641590
0.173948 -6.978431 1.649261
0.131993 -7.025147 1.659866
0.089260 -7.055048 1.666635
0.046327 -7.109044 1.679045
0.002724 -7.142318 1.686716
-0.041275 -7.173374 1.693936
-0.085723 -7.210003 1.702510
-0.130379 -7.232719 1.707926
-0.175457 -7.261001 1.714694
-0.221386 -7.305555 1.725299
-0.267762 -7.346896 1.735227
-0.316017 -7.420062 1.752601
-0.362863 -7.445229 1.758918
-0.412798 -7.520683 1.776969
-0.460891 -7.550098 1.784415
-0.510272 -7.592813 1.795019
-0.559269 -7.622574 1.802691
-0.609037 -7.656874 1.811490
-0.658333 -7.680172 1.817808
-0.712299 -7.750689 1.835182
-0.765445 -7.803377 1.848494
-0.818256 -7.846013 1.859550
-0.869909 -7.872799 1.866996
-0.932524 -7.990207 1.895651
-0.979634 -7.968863 1.892041
-1.038733 -8.041931 1.910542
-1.096938 -8.101054 1.925885
-1.152357 -8.134685 1.935362
-1.209797 -8.178539 1.947320
-1.267967 -8.222957 1.959504
-1.325493 -8.259270 1.969883
-1.391519 -8.343234 1.991544
-1.449493 -8.373897 2.000795
-1.507208 -8.400326 2.009143
-1.559079 -8.392835 2.009595
-1.608710 -8.373544 2.007338
-1.659111 -8.358737 2.006210
-1.711345 -8.353171 2.007338
-1.765184 -8.354905 2.010272
-1.818693 -8.354388 2.012753
-1.870559 -8.345923 2.013430
-1.923046 -8.339985 2.014784
-1.975980 -8.335612 2.016589
-2.028471 -8.329011 2.017943
-2.080720 -8.321133 2.019071
-2.134642 -8.319533 2.021779
-2.186889 -8.310989 2.022907
-2.241393 -8.310584 2.026066
-2.297789 -8.316395 2.030804
-2.352220 -8.314326 2.033737
-2.404817 -8.305351 2.035091
-2.459881 -8.304452 2.038475
-2.514741 -8.302256 2.041634
-2.568228 -8.295045 2.043665
-2.623483 -8.293064 2.047049
-2.676714 -8.284226 2.048854
-2.731461 -8.279675 2.051788
-2.785631 -8.272915 2.054270
-2.842036 -8.272252 2.058331
-2.896926 -8.266611 2.061264
-2.954477 -8.267946 2.066002
-3.008152 -8.257901 2.068033
-3.065883 -8.258469 2.072771
-3.117876 -8.243146 2.073674
-3.174348 -8.239315 2.077510
-3.230180 -8.233287 2.080894
-3.286417 -8.227788 2.084504
-3.345643 -8.229129 2.089919
-3.403520 -8.226451 2.094432
-3.461111 -8.222473 2.098719
-3.518015 -8.216307 2.102555
-3.574584 -8.208858 2.106165
-3.631983 -8.202806 2.110226
-3.689842 -8.197246 2.114513
-3.751821 -8.200144 2.121056
-3.807403 -8.188453 2.123990
-3.865480 -8.181674 2.128277
-2.599432 -5.414760 1.423630
-2.654375 -5.443371 1.435137
-2.680378 -5.412139 1.431302
-4.097045 -8.147888 2.144748
-2.865725 -5.612258 1.491997
-2.854391 -5.506339 1.468982
-2.853205 -5.422329 1.451609
-2.839628 -5.317059 1.428594
-2.530668 -4.669079 1.262529
-2.549414 -4.635535 1.257791
-2.584927 -4.632567 1.261176
-2.616182 -4.621706 1.262529
-2.666312 -4.643590 1.272683
-2.709457 -4.652401 1.279452
-2.743400 -4.644917 1.281934
-2.783358 -4.647222 1.287123
-2.822437 -4.647544 1.291862
-2.859070 -4.643414 1.295472
-2.895759 -4.639008 1.299082
-2.930418 -4.631032 1.301789
-2.965613 -4.623627 1.304723
-3.000828 -4.615963 1.307656
-3.038739 -4.612108 1.311717
-3.076716 -4.607962 1.315778
-3.115301 -4.604330 1.320065
-3.140741 -4.581110 1.318937
-3.166569 -4.558551 1.318035
-3.192798 -4.536645 1.317358
-3.217182 -4.512209 1.316004
-3.243097 -4.490014 1.315327
-3.275762 -4.477108 1.317358
-3.325788 -4.487453 1.326158
-3.362030 -4.478651 1.329542
-3.404184 -4.477328 1.335183
-3.443477 -4.471797 1.339695
-3.487022 -4.471329 1.345788
-3.523447 -4.461318 1.349172
-3.556230 -4.446464 1.351203
-3.677846 -4.541166 1.385950
-3.747639 -4.569746 1.401293
-3.763786 -4.532423 1.397006
-3.830388 -4.555481 1.410995
-3.845009 -4.516312 1.406257
-3.798881 -4.407023 1.380083
-3.839940 -4.399781 1.385047
-3.932647 -4.450614 1.408062
-3.975467 -4.443829 1.413477
-4.013775 -4.431630 1.417313
-4.027068 -4.391837 1.412574
-5.890835 -6.346592 2.038024
-4.151364 -4.417352 1.436491
-4.158249 -4.370619 1.429722
-4.225530 -4.387130 1.443260
-4.253049 -4.361818 1.443486
-4.281102 -4.337027 1.443937
-5.847799 -5.852525 1.948674
-5.848271 -5.781598 1.937167
-5.848792 -5.711567 1.925885
-4.973041 -4.796853 1.632790
-4.962184 -4.727936 1.619929
-4.961309 -4.669352 1.610453
-4.967038 -4.617592 1.603233
-4.950795 -4.546166 1.589244
-4.954787 -4.494101 1.581798
-4.959054 -4.442808 1.574578
-4.975279 -4.402610 1.571193
-5.021268 -4.388672 1.577060
-5.073171 -4.379428 1.584731
-5.146645 -4.388045 1.598946
-5.197315 -4.376468 1.606166
-5.269756 -4.382502 1.619929
-5.757224 -4.728573 1.758016
-5.743008 -4.658171 1.745155
-5.736509 -4.594823 1.734776
-5.726395 -4.529314 1.723494
-5.727977 -4.473699 1.715823
-5.732178 -4.420617 1.709054
-5.713470 -4.350533 1.695742
-5.717477 -4.298413 1.689198
-5.710111 -4.238277 1.679496
-5.703794 -4.179547 1.670245
-5.689080 -4.115343 1.658738
-5.688857 -4.062237 1.651518
-5.688993 -4.009851 1.644523
-5.685503 -3.955392 1.636626
-5.667106 -3.891198 1.624668
-5.663457 -3.837766 1.616996
-5.669085 -3.791026 1.612032
-5.672727 -3.743289 1.606617
-5.662935 -3.687143 1.597592
-5.646113 -3.627046 1.586762
-5.636174 -3.571989 1.577962
-5.634858 -3.522874 1.571644
-5.632323 -3.473399 1.565101
-5.633556 -3.426620 1.559686
-5.630250 -3.377451 1.553143
-5.622363 -3.325972 1.545471
-5.614897 -3.275208 1.538025
-5.618844 -3.231462 1.533738
-5.603823 -3.177218 1.524487
-5.605356 -3.132790 1.519749
-5.593757 -3.081409 1.511626
-5.599717 -3.040054 1.508242
-5.597651 -2.994605 1.502827
-5.586621 -2.944751 1.495155
-5.584701 -2.900087 1.489966
-5.578108 -2.853338 1.483648
-5.567672 -2.805026 1.476428
-5.566453 -2.761714 1.471690
-5.566664 -2.719380 1.467403
-5.569199 -2.678413 1.463793
-5.568800 -2.636268 1.459506
-5.561030 -2.590935 1.453414
-5.558228 -2.548235 1.448675
-5.550672 -2.503664 1.442809
-5.557025 -2.465605 1.440553
-5.451517 -2.378838 1.410092
-5.348739 -2.294997 1.380535
-5.345667 -2.254937 1.376248
-5.327908 -2.209029 1.368351
-5.511863 -2.245806 1.410995
-5.498409 -2.201076 1.404226
-5.495492 -2.160877 1.400165
-5.503195 -2.125010 1.398811
-5.505200 -2.087057 1.396103
-5.497817 -2.045759 1.391139
-5.491050 -2.004966 1.386401
-5.483990 -1.964333 1.381663
-5.483072 -1.926124 1.378504
-5.482814 -1.888318 1.375571
-5.477684 -1.849029 1.371509
-5.470428 -1.809261 1.366997
-5.468452 -1.771456 1.363838
-5.469005 -1.734627 1.361356
-5.467451 -1.697279 1.358423
-5.473102 -1.662283 1.357295
-5.474794 -1.626171 1.355264
-5.471571 -1.588742 1.352105
-5.468097 -1.551414 1.348946
-5.459676 -1.512887 1.344659
-5.455691 -1.475794 1.341501
-5.458050 -1.440549 1.339921
-5.457353 -1.404602 1.337665
-5.449805 -1.367057 1.333829
-5.439164 -1.328963 1.329316
-5.445321 -1.295113 1.328865
-5.441776 -1.259039 1.326158
-5.447498 -1.225197 1.325706
-5.445395 -1.189668 1.323450
-5.436392 -1.152794 1.319614
-0.000000 -0.000000 0.000000
-0.000000 -0.000000 0.000000
-0.000000 -0.000000 0.000000
-0.000000 -0.000000 0.000000
-0.000000 -0.000000 0.000000
-0.000000 -0.000000 0.000000
-0.000000 -0.000000 0.000000
-0.000000 -0.000000 0.000000
-0.000000 -0.000000 0.000000
-0.000000 -0.000000 0.000000
-0.000000 -0.000000 0.000000
-0.000000 -0.000000 0.000000
-0.000000 -0.000000 0.000000
-0.000000 -0.000000 0.000000
-0.000000 -0.000000 0.000000
-0.000000 -0.000000 0.000000
-0.000000 -0.000000 0.000000
-0.000000 -0.000000 0.000000
-0.000000 -0.000000 0.000000
-0.000000 -0.000000 0.000000
-0.000000 -0.000000 0.000000
-0.000000 -0.000000 0.000000
-0.000000 -0.000000 0.000000
-0.000000 -0.000000 0.000000
-0.000000 -0.000000 0.000000
-0.000000 -0.000000 0.000000
-0.000000 -0.000000 0.000000
-0.000000 -0.000000 0.000000
-0.000000 -0.000000 0.000000
-0.000000 -0.000000 0.000000
-0.000000 -0.000000 0.000000
-0.000000 -0.000000 0.000000
-0.000000 -0.000000 0.000000
-0.000000 -0.000000 0.000000
-0.000000 0.000000 0.000000
-0.000000 0.000000 0.000000
-0.000000 0.000000 0.000000
-0.000000 0.000000 0.000000
-0.000000 0.000000 0.000000
-0.000000 0.000000 0.000000
-0.000000 0.000000 0.000000
-0.000000 0.000000 0.000000
-0.000000 0.000000 0.000000
-0.000000 0.000000 0.000000
-0.000000 0.000000 0.000000
-0.000000 0.000000 0.000000
-0.000000 0.000000 0.000000
-0.000000 0.000000 0.000000
-0.000000 0.000000 0.000000
-0.000000 0.000000 0.000000
-0.000000 0.000000 0.000000
-0.000000 0.000000 0.000000
-0.000000 0.000000 0.000000
-0.000000 0.000000 0.000000
-0.000000 0.000000 0.000000
-0.000000 0.000000 0.000000
-0.000000 0.000000 0.000000
-0.000000 0.000000 0.000000
-0.000000 0.000000 0.000000
-0.000000 0.000000 0.000000
-0.000000 0.000000 0.000000
-0.000000 0.000000 0.000000
-0.000000 0.000000 0.000000
-0.000000 0.000000 0.000000
-0.000000 0.000000 0.000000
-0.000000 0.000000 0.000000
-0.000000 0.000000 0.000000
-0.000000 0.000000 0.000000
-0.000000 0.000000 0.000000
-0.000000 0.000000 0.000000
-0.000000 0.000000 0.000000
-0.000000 0.000000 0.000000
-0.000000 0.000000 0.000000
-0.000000 0.000000 0.000000
-0.000000 0.000000 0.000000
-0.000000 0.000000 0.000000
-0.000000 0.000000 0.000000
-0.000000 0.000000 0.000000
-0.000000 0.000000 0.000000
-0.000000 0.000000 0.000000
-0.000000 0.000000 0.000000
-0.000000 0.000000 0.000000
-0.000000 0.000000 0.000000
-0.000000 0.000000 0.000000
-0.000000 0.000000 0.000000
-0.000000 0.000000 0.000000
-0.000000 0.000000 0.000000
-0.000000 0.000000 0.000000
-0.000000 0.000000 0.000000
-0.000000 0.000000 0.000000
-0.000000 0.000000 0.000000
-0.000000 0.000000 0.000000
-0.000000 0.000000 0.000000
-0.000000 0.000000 0.000000
-0.000000 0.000000 0.000000
-0.000000 0.000000 0.000000
-0.000000 0.000000 0.000000
-0.000000 0.000000 0.000000
-0.000000 0.000000 0.000000
-0.000000 0.000000 0.000000
-0.000000 0.000000 0.000000
-0.000000 0.000000 0.000000
-0.000000 0.000000 0.000000
-0.000000 0.000000 0.000000
-0.000000 0.000000 0.000000
-5.172683 2.444341 1.075080
-5.156700 2.475608 1.074901
-5.152026 2.512375 1.077051
-5.141803 2.546559 1.078126
-5.127839 2.578944 1.078484
-5.132073 2.620646 1.082604
-5.115023 2.651634 1.082425
-5.109106 2.688464 1.084575
-5.114211 2.731345 1.089054
-5.106006 2.767360 1.090845
-5.094102 2.801481 1.091920
-5.098298 2.844665 1.096399
-5.091022 2.881708 1.098548
-5.097137 2.926603 1.103565
-5.095239 2.967227 1.106968
-5.090492 3.006437 1.109835
-5.089675 3.048227 1.113597
-5.087696 3.089609 1.117180
-5.082887 3.129535 1.120225
-5.081952 3.172121 1.124166
-5.073201 3.210080 1.126495
-5.065833 3.249113 1.129182
-5.062300 3.290856 1.132765
-5.065019 3.337007 1.137781
-5.067361 3.383314 1.142797
-5.057915 3.422059 1.145305
-5.051430 3.463040 1.148530
-5.054330 3.510803 1.153904
-5.049591 3.553637 1.157666
-5.041312 3.594260 1.160712
-5.033521 3.635492 1.163937
-5.039707 3.687216 1.170386
-5.037541 3.733296 1.175044
-5.035000 3.779488 1.179701
-5.026597 3.821621 1.183105
-5.029560 3.872795 1.189196
-5.027428 3.920519 1.194212
-5.018722 3.963485 1.197795
-5.011214 4.007720 1.201736
-5.004116 4.052630 1.205857
-4.995132 4.096357 1.209619
-4.993371 4.146409 1.215172
-4.991182 4.196592 1.220726
-4.993809 4.251368 1.227533
-4.985517 4.297342 1.231833
-4.987226 4.352429 1.238640
-4.978861 4.399230 1.243119
-4.970108 4.446093 1.247598
-4.963884 4.495654 1.252793
-4.978996 4.565248 1.263362
-4.962430 4.606420 1.266229
-4.958451 4.659684 1.272320
-4.963986 4.722565 1.280919
-4.960429 4.777499 1.287368
-4.952157 4.828447 1.292742
-4.946248 4.882236 1.298833
-4.952392 4.948648 1.308149
-4.948222 5.005526 1.314956
-4.940789 5.059721 1.321047
-4.930827 5.111890 1.326601
-4.924483 5.168398 1.333229
-4.912235 5.219290 1.338424
-4.920987 5.293280 1.349352
-4.921693 5.359601 1.358310
-4.905241 5.407914 1.362788
-4.880503 5.447435 1.365117
-4.838509 5.467702 1.362788
-4.773785 5.461737 1.354189
-4.713819 5.460396 1.346844
-4.653412 5.457778 1.339320
-4.595750 5.457635 1.332513
-4.536379 5.454722 1.325168
-4.473471 5.446727 1.316748
-4.418890 5.448098 1.310657
-4.362002 5.445933 1.303849
-4.306529 5.444820 1.297400
-4.220948 5.404470 1.281994
-4.176290 5.415467 1.278590
-4.123310 5.415164 1.272678
-4.068126 5.411269 1.266050
-4.012560 5.406113 1.259242
-3.964772 5.410795 1.254763
-3.907274 5.401545 1.247239
-3.850611 5.392595 1.239894
-3.795340 5.384763 1.232908
-3.748740 5.388568 1.228608
-3.695553 5.382275 1.222159
-3.622712 5.346216 1.209260
-3.581635 5.356078 1.206573
-3.537321 5.360712 1.202811
-3.480199 5.345219 1.194750
-3.436166 5.349092 1.190988
-3.391164 5.350964 1.186867
-3.354615 5.365832 1.185613
-3.297350 5.346961 1.177193
-0.183218 0.303354 0.097841
-0.193503 0.324718 0.102140
-0.186998 0.318279 0.100528
-0.185537 0.320271 0.100707
-0.183078 0.320550 0.100528
-0.000000 0.000000 0.000000
-0.000000 0.000000 0.000000
-0.000000 0.000000 0.000000
-0.000000 0.000000 0.000000
-0.000000 0.000000 0.000000
-0.000000 0.000000 0.000000
-0.000000 0.000000 0.000000
-0.000000 0.000000 0.000000
-0.000000 0.000000 0.000000
-0.000000 0.000000 0.000000
-0.000000 0.000000 0.000000
-0.000000 0.000000 0.000000
-0.000000 0.000000 0.000000
-0.000000 0.000000 0.000000
-0.000000 0.000000 0.000000
-0.000000 0.000000 0.000000
-0.000000 0.000000 0.000000
-0.000000 0.000000 0.000000
-0.000000 0.000000 0.000000
-0.000000 0.000000 0.000000
-0.000000 0.000000 0.000000
-0.000000 0.000000 0.000000
-0.000000 0.000000 0.000000
-0.000000 0.000000 0.000000
-0.000000 0.000000 0.000000
-0.000000 0.000000 0.000000
-0.000000 0.000000 0.000000
-0.000000 0.000000 0.000000
-0.000000 0.000000 0.000000
-0.000000 0.000000 0.000000
-0.000000 0.000000 0.000000
-0.000000 0.000000 0.000000
-0.000000 0.000000 0.000000
-0.000000 0.000000 0.000000
-0.000000 0.000000 0.000000
-0.000000 0.000000 0.000000
-0.000000 0.000000 0.000000
-0.000000 0.000000 0.000000
-0.000000 0.000000 0.000000
-0.000000 0.000000 0.000000
-0.000000 0.000000 0.000000
-0.000000 0.000000 0.000000
-0.000000 0.000000 0.000000
-0.000000 0.000000 0.000000
-0.000000 0.000000 0.000000
-0.000000 0.000000 0.000000
-0.083667 0.356510 0.099991
-0.000000 0.000000 0.000000
-0.000000 0.000000 0.000000
-0.000000 0.000000 0.000000
-0.000000 0.000000 0.000000
-0.000000 0.000000 0.000000
-0.070488 0.359348 0.099991
-0.068282 0.359774 0.099991
-0.067157 0.365989 0.101065
-0.068578 0.386726 0.104828
-0.066710 0.390047 0.105365
-0.064478 0.391419 0.105544
-0.062389 0.393750 0.105902
-0.060877 0.399959 0.106977
-0.063203 0.432437 0.112889
-0.060687 0.433790 0.113068
-0.058157 0.435129 0.113247
-0.055486 0.435478 0.113247
-0.051482 0.425070 0.111277
-0.047034 0.409745 0.108410
-0.043865 0.404159 0.107336
-0.040869 0.399529 0.106440
-0.037738 0.392919 0.105186
-0.035145 0.391184 0.104828
-0.031215 0.373749 0.101603
-0.028448 0.368050 0.100528
-0.025970 0.365274 0.099991
-0.023594 0.363463 0.099632
-0.021242 0.361638 0.099274
-0.019078 0.362743 0.099453
-0.016851 0.362854 0.099453
-0.014625 0.362950 0.099453
-0.012324 0.361067 0.099095
-0.010139 0.362119 0.099274
-0.007941 0.363158 0.099453
-0.005750 0.365167 0.099811
-0.003522 0.366179 0.099991
-0.001282 0.367178 0.100170
0.000970 0.369146 0.100528
0.003246 0.371101 0.100886
0.005535 0.372058 0.101065
0.007835 0.373001 0.101245
0.010171 0.374913 0.101603
0.012501 0.375826 0.101782
0.014913 0.378692 0.102319
0.017320 0.380559 0.102678
0.019655 0.380446 0.102678
0.022043 0.381301 0.102857
0.024501 0.383122 0.103215
0.026983 0.384928 0.103574
0.029560 0.387699 0.104111
0.032016 0.388491 0.104290
0.034483 0.389267 0.104469
0.036781 0.388069 0.104290
0.039737 0.393710 0.105365
0.042662 0.398352 0.106261
0.045213 0.399060 0.106440
0.049369 0.413434 0.109127
0.052385 0.417029 0.109844
0.056453 0.428408 0.111993
0.060136 0.435853 0.113427
0.062671 0.434502 0.113247
0.065480 0.435083 0.113427
0.068448 0.436617 0.113785
0.070814 0.434246 0.113427
0.074609 0.440597 0.114681
0.078150 0.444978 0.115576
0.081573 0.448363 0.116293
0.083604 0.443985 0.115576
0.085771 0.440565 0.115039
0.088089 0.438101 0.114681
0.090579 0.436588 0.114501
0.093256 0.436024 0.114501
0.095929 0.435444 0.114501
0.098599 0.434847 0.114501
0.102591 0.439986 0.115576
0.104835 0.437434 0.115218
0.107983 0.438694 0.115576
0.112819 0.446613 0.117189
0.115069 0.444007 0.116830
0.118542 0.446147 0.117368
0.122045 0.448261 0.117905
0.125055 0.448452 0.118084
0.128875 0.451463 0.118801
0.132463 0.453499 0.119338
0.135244 0.452677 0.119338
0.138304 0.452781 0.119517
0.141661 0.453803 0.119876
0.144739 0.453863 0.120055
0.148126 0.454839 0.120413
0.151839 0.456725 0.120951
0.155266 0.457649 0.121309
0.159030 0.459480 0.121846
0.162171 0.459424 0.122026
0.164987 0.458420 0.122026
0.169143 0.461097 0.122742
0.172996 0.462817 0.123280
0.175485 0.460827 0.123100
0.179370 0.462496 0.123638
0.186515 0.472377 0.125788
0.191963 0.477620 0.127042
0.193038 0.471876 0.126146
0.198186 0.476137 0.127221
0.201104 0.474912 0.127221
0.209047 0.485427 0.129550
0.213592 0.487744 0.130266
0.217377 0.488223 0.130625
0.221580 0.489572 0.131162
0.224170 0.487308 0.130983
0.227571 0.486816 0.131162
0.230553 0.485410 0.131162
0.233528 0.483986 0.131162
0.236062 0.481660 0.130983
0.239886 0.481966 0.131341
0.242397 0.479606 0.131162
0.242204 0.471976 0.129908
0.249622 0.479216 0.131699
0.252099 0.476804 0.131520
0.253167 0.471777 0.130804
0.256057 0.470215 0.130804
0.257042 0.465186 0.130087
0.259891 0.463600 0.130087
0.268544 0.472272 0.132237
0.283190 0.491094 0.136536
0.000000 0.000000 0.000000
0.000000 0.000000 0.000000
0.000000 0.000000 0.000000
2.978321 4.904356 1.078126
2.932558 4.762823 1.051791
2.978912 4.772284 1.057703
3.020760 4.773871 1.062003
3.059021 4.769326 1.065048
3.096805 4.763666 1.067914
3.134634 4.757721 1.070781
3.175236 4.755582 1.074543
3.216481 4.753939 1.078484
3.256157 4.749533 1.081888
3.296460 4.745626 1.085471
3.336272 4.740599 1.088875
3.373862 4.732057 1.091562
3.416655 4.730410 1.095861
3.464781 4.735562 1.101773
3.507828 4.733186 1.106073
3.550976 4.730460 1.110372
3.593031 4.725814 1.114313
3.636962 4.723170 1.118792
3.685230 4.725595 1.124525
3.723910 4.715249 1.127391
3.769973 4.713827 1.132407
3.814302 4.709722 1.136886
3.852484 4.697642 1.139573
3.902600 4.699653 1.145664
3.960482 4.710263 1.153904
4.008437 4.708351 1.159279
4.048811 4.697082 1.162503
4.085964 4.681788 1.164832
4.139363 4.684649 1.171640
4.171309 4.662829 1.172536
4.210405 4.648816 1.175402
4.318622 4.709925 1.196899
4.377554 4.715790 1.204961
4.426615 4.710353 1.210335
4.476452 4.705203 1.215889
4.529121 4.702453 1.222159
4.580550 4.697824 1.228071
4.640385 4.701143 1.236132
4.676096 4.679542 1.237924
4.729205 4.674973 1.244194
4.781026 4.668554 1.250106
4.830821 4.659624 1.255480
4.886383 4.655689 1.262287
4.945659 4.654618 1.269991
5.030320 4.676443 1.283964
5.079206 4.664124 1.288980
5.131045 4.654027 1.294713
5.180752 4.641497 1.299908
5.237864 4.635053 1.306895
5.293609 4.626787 1.313523
5.377745 4.642445 1.326959
5.413614 4.615745 1.328751
5.466665 4.603356 1.334662
5.571196 4.633276 1.352756
5.616243 4.612744 1.356697
5.698684 4.622208 1.369417
5.753042 4.608070 1.375508
5.803583 4.590386 1.380703
5.836291 4.558324 1.381778
5.853245 4.514014 1.379270
5.857353 4.460130 1.373895
5.853158 4.400453 1.366729
5.859512 4.349207 1.362072
5.853555 4.289325 1.354727
5.842303 4.226220 1.346307
5.832100 4.164559 1.338245
5.831010 4.109987 1.332333
5.828663 4.055024 1.326243
5.821808 3.997459 1.319256
5.816909 3.941789 1.312807
5.814819 3.888518 1.307074
5.821327 3.841383 1.303312
5.815110 3.786262 1.296863
5.800161 3.726043 1.288622
5.800480 3.676160 1.283785
5.792899 3.621719 1.277336
5.806640 3.580941 1.275544
5.801608 3.528880 1.269812
5.795313 3.476509 1.263900
5.791983 3.426353 1.258705
5.785706 3.374883 1.252972
5.786692 3.328034 1.248852
5.787321 3.281301 1.244731
5.773856 3.227004 1.237745
5.759944 3.172996 1.230758
5.761149 3.127733 1.226996
5.762017 3.082576 1.223234
5.762548 3.037525 1.219472
5.760998 2.991678 1.215351
5.763482 2.948205 1.212127
5.751593 2.897730 1.206036
5.735778 2.845762 1.199228
5.723078 2.795826 1.193137
5.728601 2.755112 1.190808
5.726726 2.711067 1.187046
5.728986 2.669227 1.184180
5.729160 2.626641 1.180955
5.722750 2.581321 1.176477
5.705211 2.531388 1.169848
5.717029 2.494760 1.169132
5.753926 2.468948 1.173431
6.100708 2.573612 1.238999
6.176361 2.561012 1.250822
6.274862 2.556864 1.267125
6.359842 2.546115 1.280740
6.449502 2.536220 1.295250
6.543865 2.527092 1.310657
6.630077 2.513761 1.324451
6.746795 2.510793 1.344157
6.828608 2.493657 1.357056
6.977143 2.499511 1.382853
7.053606 2.478186 1.394676
7.177505 2.472364 1.415636
7.290409 2.461335 1.434446
7.403444 2.449013 1.453257
7.527829 2.439036 1.474217
7.617671 2.416610 1.488549
7.752615 2.407184 1.511479
7.899022 2.399623 1.536560
10.728576 3.187869 2.071309
10.330358 3.000638 1.992127
4.225300 1.198530 0.833055
4.231626 1.172318 0.832875
5.625209 1.521687 1.094428
5.632538 1.486641 1.094070
5.631074 1.449352 1.092099
5.634136 1.413336 1.091024
5.628367 1.375233 1.088337
5.621386 1.337027 1.085471
5.613190 1.298736 1.082425
5.612415 1.262325 1.080813
5.614288 1.226603 1.079738
5.608236 1.189271 1.077230
5.605791 1.152854 1.075439
5.604076 1.116704 1.073826
5.599231 1.080058 1.071677
5.594147 1.043514 1.069527
5.585922 1.006549 1.066840
5.583270 0.970737 1.065227
5.589121 0.936461 1.065227
5.588934 0.901208 1.064152
5.580748 0.864786 1.061644
5.574272 0.828788 1.059495
5.571461 0.793458 1.058061
1.889531 0.256497 0.380533
1.888142 0.244517 0.379995
1.889607 0.232927 0.379995
1.890024 0.221213 0.379816
1.886457 0.209067 0.378920
1.885747 0.197282 0.378562
1.884964 0.185514 0.378204
1.883128 0.173671 0.377666
1.883178 0.162029 0.377487
1.880214 0.150155 0.376771
1.878157 0.138397 0.376233
1.876026 0.126669 0.375696
1.874804 0.115034 0.375337
1.874492 0.103473 0.375158
1.873127 0.091872 0.374800
1.878570 0.080591 0.375696
1.878046 0.069026 0.375517
1.878434 0.057501 0.375517
1.878751 0.045974 0.375517
1.874080 0.034352 0.374621
1.865402 0.022739 0.373009
1.873376 0.011345 0.374442
1.868492 -0.000152 0.373546
1.867472 -0.011612 0.373367
1.867365 -0.023070 0.373367
1.861287 -0.034422 0.372292
1.860057 -0.045818 0.372113
1.860724 -0.057260 0.372292
1.858371 -0.068605 0.371934
1.872659 -0.080632 0.374621
1.869182 -0.091978 0.374083
1.856794 -0.102800 0.371934
1.849254 -0.113773 0.370680
1.847539 -0.125051 0.370501
1.849681 -0.136601 0.371038
1.861557 -0.148960 0.373367
1.842964 -0.158870 0.370142
1.850772 -0.170984 0.371755
1.856542 -0.183008 0.373009
1.857341 -0.194600 0.373367
1.853179 -0.205669 0.372829
1.853836 -0.217264 0.373188
1.835868 -0.226596 0.370142
1.841273 -0.238738 0.371396
1.842698 -0.250427 0.371934
1.849894 -0.262969 0.373546
1.845326 -0.273884 0.373009
1.845555 -0.285501 0.373367
1.835998 -0.295574 0.371934
1.832209 -0.306510 0.371575
1.831263 -0.317914 0.371755
1.841866 -0.331402 0.374083
1.835929 -0.341979 0.373367
1.833796 -0.353237 0.373367
1.829664 -0.364100 0.373009
1.827396 -0.375320 0.373009
1.826021 -0.386728 0.373188
1.822652 -0.397716 0.373009
1.820178 -0.408892 0.373009
1.820511 -0.420716 0.373546
1.815980 -0.431425 0.373188
1.816167 -0.443257 0.373725
1.815322 -0.454870 0.374083
1.812497 -0.466000 0.374083
1.812457 -0.477863 0.374621
1.809491 -0.488975 0.374621
1.809302 -0.500854 0.375158
1.808088 -0.512482 0.375517
1.751042 -0.507977 0.365305
0.000000 -0.000000 0.000000
2.977251 -0.902590 0.599807
2.972596 -0.921132 0.599986
2.966888 -0.939354 0.599986
2.961069 -0.957541 0.599986
2.957006 -0.976308 0.600344
2.956555 -0.996316 0.601419
2.955969 -1.016356 0.602494
2.955248 -1.036426 0.603569
2.953465 -1.056194 0.604465
2.828600 -1.031210 0.581534
2.720760 -1.010895 0.561828
0.000000 -0.000000 0.000000
0.000000 -0.000000 0.000000
0.000000 -0.000000 0.000000
0.000000 -0.000000 0.000000
2.734953 -1.112769 0.570965
2.759894 -1.142690 0.577235
2.809960 -1.183641 0.588521
2.827969 -1.211700 0.593537
2.914295 -1.269867 0.612168
2.896553 -1.283345 0.610197
2.909259 -1.310379 0.614318
2.831378 -1.296287 0.600344
2.728803 -1.269679 0.581355
0.000000 -0.000000 0.000000
2.728982 -1.310731 0.584580
2.710276 -1.322278 0.582430
2.701230 -1.338447 0.582251
2.694725 -1.355880 0.582609
2.694241 -1.376414 0.584221
2.687492 -1.393825 0.584580
2.679760 -1.410747 0.584759
2.677128 -1.430406 0.586013
2.674356 -1.450086 0.587267
2.666271 -1.466942 0.587446
2.667530 -1.489025 0.589596
2.655775 -1.503911 0.589058
2.643937 -1.518709 0.588521
2.639670 -1.537873 0.589596
2.631879 -1.555041 0.589954
0.000000 -0.000000 0.000000
2.616803 -1.589774 0.590850
2.609513 -1.607347 0.591387
2.607113 -1.628015 0.592999
2.605389 -1.649240 0.594791
2.613442 -1.676877 0.598732
2.893488 -1.881572 0.661791
2.890927 -1.905243 0.663762
2.886547 -1.927861 0.665374
2.879553 -1.948843 0.666449
2.880526 -1.975373 0.669315
2.353575 -1.635586 0.555200
2.349128 -1.653959 0.556454
2.732314 -1.948693 0.644414
2.883826 -2.083478 0.681139
2.877341 -2.105780 0.682572
2.871480 -2.128666 0.684185
2.865448 -2.151559 0.685797
2.857675 -2.173268 0.687051
2.848964 -2.194362 0.688126
2.836998 -2.213011 0.688484
0.732256 -0.579566 0.203358
0.712549 -0.571147 0.199596
0.705972 -0.573033 0.198879
0.700160 -0.575482 0.198342
0.695102 -0.578511 0.197983
0.688527 -0.580233 0.197267
0.683455 -0.583172 0.196908
0.676883 -0.584786 0.196192
0.674023 -0.589575 0.196371
0.671867 -0.595002 0.196729
0.660870 -0.592555 0.194938
0.632425 -0.574149 0.188847
0.623813 -0.573365 0.187593
0.618120 -0.575174 0.187055
0.612428 -0.576935 0.186518
0.601035 -0.573224 0.184547
0.594671 -0.574172 0.183831
0.585501 -0.572317 0.182398
0.576376 -0.570370 0.180964
0.570777 -0.571810 0.180427
0.563799 -0.571804 0.179531
0.554092 -0.568919 0.177919
0.546492 -0.568060 0.176844
0.538924 -0.567129 0.175769
0.533411 -0.568277 0.175232
0.529244 -0.570818 0.175053
0.524400 -0.572606 0.174694
0.520216 -0.575084 0.174515
0.514708 -0.576067 0.173978
0.511815 -0.579951 0.174157
0.507600 -0.582340 0.173978
0.502731 -0.583955 0.173619
0.500415 -0.588525 0.173978
0.495527 -0.590080 0.173619
0.491897 -0.593109 0.173619
0.486999 -0.594596 0.173261
0.480862 -0.594517 0.172545
0.477205 -0.597457 0.172545
0.471699 -0.598059 0.172007
0.466204 -0.598616 0.171470
0.461320 -0.599907 0.171111
0.455246 -0.599596 0.170395
0.448601 -0.598447 0.169499
0.442575 -0.598028 0.168783
0.436571 -0.597559 0.168066
0.430012 -0.596241 0.167170
0.426917 -0.599669 0.167349
0.424931 -0.604689 0.167887
0.425708 -0.613746 0.169320
0.418592 -0.611480 0.168245
0.415936 -0.615666 0.168603
0.412698 -0.619024 0.168783
0.409434 -0.622366 0.168962
0.403997 -0.622393 0.168424
0.401234 -0.626516 0.168783
0.397382 -0.628966 0.168783
0.392472 -0.629724 0.168424
0.386534 -0.628771 0.167708
0.383181 -0.631972 0.167887
0.375246 -0.627562 0.166454
0.374895 -0.635780 0.167708
0.369996 -0.636369 0.167349
0.365593 -0.637774 0.167170
0.358761 -0.634871 0.166095
0.357259 -0.641354 0.166991
0.359490 -0.654735 0.169320
0.346075 -0.639638 0.165737
0.342144 -0.641749 0.165737
0.337741 -0.642966 0.165558
0.334696 -0.646773 0.165916
0.334755 -0.656696 0.167529
0.328063 -0.653467 0.166454
0.324484 -0.656349 0.166633
0.324339 -0.666282 0.168245
0.319818 -0.667373 0.168066
0.314032 -0.665767 0.167349
0.309110 -0.665897 0.166991
0.306659 -0.671359 0.167708
0.302534 -0.673228 0.167708
0.299595 -0.677769 0.168245
0.303697 -0.698529 0.172007
0.286598 -0.670546 0.166095
0.282861 -0.673198 0.166274
0.280987 -0.680373 0.167349
2.348877 -5.764688 1.166803
2.310169 -5.770772 1.165191
2.268593 -5.769275 1.162145
2.229251 -5.772992 1.160174
2.181923 -5.755286 1.154084
2.137986 -5.745516 1.149605
2.094589 -5.736348 1.145305
2.056032 -5.739831 1.143514
2.014902 -5.735632 1.140289
1.972619 -5.727424 1.136348
1.935550 -5.733828 1.135273
1.897549 -5.737190 1.133661
1.857153 -5.732815 1.130615
1.816882 -5.728161 1.127570
1.775280 -5.718532 1.123629
1.736439 -5.717081 1.121300
1.699365 -5.721026 1.120046
1.665876 -5.737014 1.121121
1.635749 -5.765110 1.124525
1.607969 -5.802531 1.129720
1.576448 -5.827482 1.132586
1.544179 -5.850362 1.135094
1.511935 -5.874018 1.137781
1.482332 -5.908948 1.142618
1.450956 -5.938001 1.146380
1.417455 -5.959234 1.148709
1.386413 -5.991780 1.153188
1.353295 -6.016491 1.156233
1.319926 -6.041020 1.159279
1.287533 -6.071140 1.163399
1.253431 -6.094344 1.166265
1.219477 -6.119287 1.169490
1.186198 -6.148871 1.173610
1.153323 -6.182146 1.178447
1.118338 -6.205565 1.181493
1.085639 -6.243327 1.187226
1.051054 -6.272187 1.191346
1.016156 -6.300856 1.195466
0.982152 -6.337111 1.201020
0.946872 -6.367345 1.205498
0.910980 -6.395436 1.209619
0.872917 -6.409678 1.211231
0.788123 -6.065650 1.147097
0.752825 -6.085994 1.149963
0.709375 -6.038713 1.140468
0.667296 -5.997974 1.132228
0.623993 -5.940316 1.120942
0.588211 -5.950886 1.122196
0.553778 -5.976914 1.126316
0.519728 -6.010584 1.131870
0.485047 -6.041118 1.136886
0.448919 -6.056735 1.139215
0.412616 -6.072136 1.141543
0.420999 -6.811007 1.275903
0.380022 -6.828196 1.278590
0.338850 -6.845139 1.281277
0.299324 -6.904097 1.291667
0.256882 -6.903837 1.291309
0.215591 -6.939700 1.297579
0.161875 -6.497328 1.216785
0.121445 -6.468689 1.211410
0.082055 -6.492923 1.215710
0.046275 -7.101293 1.326422
0.002739 -7.169327 1.338783
-0.041367 -7.189868 1.342545
-0.085655 -7.204236 1.345232
-0.131387 -7.289154 1.360818
-0.176771 -7.315749 1.365834
-0.223079 -7.361729 1.374433
-0.269672 -7.399549 1.381599
-0.316488 -7.431174 1.387689
-0.363941 -7.467417 1.394676
-0.411527 -7.497460 1.400588
-0.461290 -7.556661 1.411874
-0.509623 -7.583137 1.417248
-0.558082 -7.606359 1.422085
-0.607858 -7.642021 1.429251
-0.658260 -7.679317 1.436775
-0.659794 -7.178422 1.345949
-0.702005 -7.155635 1.342545
-0.821409 -7.876284 1.475292
-0.875764 -7.925858 1.485324
-0.929277 -7.962355 1.493027
-0.983631 -8.001421 1.501268
-1.039884 -8.050852 1.511479
-1.094670 -8.084292 1.518824
-1.153766 -8.144638 1.531185
-1.210191 -8.181201 1.539247
-1.266209 -8.211543 1.546233
-1.322177 -8.238590 1.552683
-1.394859 -8.363273 1.577226
-1.450843 -8.381701 1.582242
-1.502419 -8.373610 1.582421
-1.554668 -8.369070 1.583317
-1.607659 -8.368069 1.584929
-1.660697 -8.366732 1.586541
-1.713582 -8.364095 1.587974
-1.766293 -8.360162 1.589228
-1.818184 -8.352050 1.589766
-1.871333 -8.349378 1.591378
-1.923633 -8.342531 1.592274
-1.976827 -8.339187 1.593886
-2.030052 -8.335504 1.595498
-2.082829 -8.329572 1.596753
-2.135610 -8.323306 1.598006
-2.188142 -8.315754 1.599081
-2.239893 -8.305021 1.599619
-2.292119 -8.295863 1.600515
-2.350742 -8.309096 1.605710
-2.403049 -8.299242 1.606606
-2.456719 -8.293774 1.608397
-2.511269 -8.290785 1.610726
-2.567619 -8.293077 1.614130
-2.623498 -8.293113 1.617175
-2.679777 -8.293712 1.620400
-2.731540 -8.279915 1.620937
-2.788883 -8.282580 1.624699
-2.844126 -8.278338 1.627207
-2.899095 -8.272802 1.629536
-2.950463 -8.256711 1.629894
-3.003763 -8.245848 1.631328
-3.061147 -8.245708 1.634910
-3.118991 -8.246096 1.638673
-3.174833 -8.240574 1.641360
-3.232161 -8.238340 1.644763
-3.288122 -8.232059 1.647451
-3.345979 -8.229957 1.651034
-3.402055 -8.222908 1.653721
-3.459314 -8.218202 1.656945
-3.515481 -8.210388 1.659633
-3.573254 -8.205802 1.663036
-3.632297 -8.203514 1.666978
-3.690638 -8.199017 1.670560
-3.748652 -8.193215 1.673964
-3.805074 -8.183442 1.676651
-3.858997 -8.167947 1.678264
-2.571795 -5.357162 1.115388
-2.575737 -5.282028 1.103385
-2.560962 -5.170900 1.084038
-2.555525 -5.081251 1.068989
-2.555795 -5.005012 1.056628
-2.567900 -4.953421 1.049283
-2.570310 -4.884456 1.038355
-2.558072 -4.789614 1.022053
-2.525087 -4.658776 0.998227
-2.549360 -4.635435 0.996615
-2.579192 -4.622283 0.997152
-2.618163 -4.625208 1.001093
-4.664557 -8.125452 1.739352
-4.720760 -8.107731 1.741681
-4.786423 -8.105723 1.747414
-4.855271 -8.108279 1.754221
-3.474523 -5.721819 1.252255
-2.769614 -4.498058 0.995181
-2.808618 -4.499342 0.999123
-2.833017 -4.477035 0.998048
-2.872116 -4.477789 1.001989
-2.923124 -4.496380 1.009871
-2.992864 -4.542448 1.023845
-3.076385 -4.607467 1.042118
-3.119479 -4.610507 1.046955
-3.150491 -4.595337 1.047850
-3.170773 -4.564606 1.045342
-3.174381 -4.510464 1.037639
-3.192290 -4.477282 1.034593
-3.231795 -4.474360 1.038355
-3.270223 -4.469535 1.041759
-3.304028 -4.458081 1.043730
-3.337225 -4.445593 1.045521
-3.370988 -4.433649 1.047492
-3.411331 -4.430033 1.051433
-3.448731 -4.422208 1.054479
-3.481287 -4.407914 1.056091
-3.545742 -4.433345 1.067019
-4.214818 -5.204456 1.252793
-4.231079 -5.159475 1.248314
-4.248205 -5.116005 1.244194
-4.273819 -5.083065 1.242581
-4.295363 -5.045506 1.239894
-4.328810 -5.022037 1.240611
-4.364717 -5.001312 1.242044
-4.391415 -4.970013 1.240969
-4.413958 -4.934174 1.238819
-4.065800 -4.489094 1.136169
-4.066013 -4.434327 1.128824
-4.118575 -4.436699 1.135632
-4.171991 -4.439309 1.142618
-4.267629 -4.485630 1.160712
-4.391967 -4.559999 1.186151
-4.452825 -4.566782 1.194750
-4.511167 -4.570187 1.202632
-4.541905 -4.545205 1.203349
-4.473171 -4.421787 1.178627
-4.510775 -4.404569 1.181314
-4.561080 -4.399352 1.187226
-4.596534 -4.379427 1.189375
-4.673460 -4.398349 1.201916
-4.719092 -4.387010 1.206573
-4.769831 -4.379934 1.212485
-4.822845 -4.374384 1.218934
-4.904544 -4.393955 1.232370
-4.957932 -4.387254 1.238819
-5.005497 -4.374882 1.243836
-5.062030 -4.369807 1.251001
-5.152374 -4.392932 1.266229
-5.210082 -4.387222 1.273574
-5.258080 -4.372788 1.278590
-5.343344 -4.388533 1.292384
-5.723895 -4.642663 1.375328
-5.639412 -4.517025 1.348994
-5.675508 -4.489052 1.350965
-5.706822 -4.457172 1.351860
-5.718484 -4.410053 1.348277
-5.714913 -4.351632 1.341291
-5.701406 -4.286326 1.332154
-5.692844 -4.225457 1.324272
-5.687718 -4.167763 1.317285
-5.680506 -4.109138 1.309940
-5.690402 -4.063341 1.306537
-5.680653 -4.003971 1.298833
-5.665545 -3.941502 1.290055
-5.660429 -3.886612 1.283606
-5.658926 -3.834694 1.278052
-5.649640 -3.778018 1.270887
-5.644799 -3.724853 1.264796
-5.644465 -3.675113 1.259779
-5.637114 -3.621262 1.253330
-5.629315 -3.567640 1.246881
-5.631081 -3.520512 1.242581
-5.628294 -3.470914 1.237386
-5.615868 -3.415857 1.230220
-5.611414 -3.366147 1.224846
-5.612489 -3.320129 1.220726
-5.603015 -3.268274 1.214456
-5.593970 -3.217151 1.208365
-5.591355 -3.170146 1.203707
-5.593527 -3.126176 1.200124
-5.594510 -3.081824 1.196362
-5.589107 -3.034291 1.191346
-5.583333 -2.986941 1.186330
-5.572837 -2.937482 1.180418
-5.568058 -2.891440 1.175760
-5.570806 -2.849601 1.172715
-5.570615 -2.806509 1.169132
-5.570987 -2.763965 1.165728
-5.570164 -2.721090 1.162145
-5.564591 -2.676197 1.157666
-5.552455 -2.628526 1.151934
-5.542620 -2.582354 1.146739
-5.543159 -2.541323 1.143693
-5.534435 -2.496336 1.138856
-5.542455 -2.459137 1.137423
-5.464571 -2.384537 1.118971
-5.345303 -2.293522 1.092458
-5.319393 -2.243848 1.084575
-5.401216 -2.239441 1.098011
-5.505958 -2.243398 1.115926
-5.499527 -2.201524 1.111984
-5.499199 -2.162335 1.109297
-5.505022 -2.125715 1.107864
-5.505083 -2.087012 1.105356
-5.495657 -2.044955 1.101056
-5.497012 -2.007145 1.098907
-5.499963 -1.970058 1.097115
-5.542577 -1.947041 1.103027
-5.611157 -1.932549 1.113955
-0.000000 -0.000000 0.000000
-0.000000 -0.000000 0.000000
-0.000000 -0.000000 0.000000
-0.000000 -0.000000 0.000000
-0.000000 -0.000000 0.000000
-0.000000 -0.000000 0.000000
-0.000000 -0.000000 0.000000
-0.000000 -0.000000 0.000000
-0.000000 -0.000000 0.000000
-0.000000 -0.000000 0.000000
-0.000000 -0.000000 0.000000
-0.000000 -0.000000 0.000000
-0.000000 -0.000000 0.000000
-0.000000 -0.000000 0.000000
-0.000000 -0.000000 0.000000
-0.000000 -0.000000 0.000000
-0.000000 -0.000000 0.000000
-0.000000 -0.000000 0.000000
-0.000000 -0.000000 0.000000
-0.000000 -0.000000 0.000000
-0.000000 -0.000000 0.000000
-0.000000 -0.000000 0.000000
-0.000000 -0.000000 0.000000
-0.000000 -0.000000 0.000000
-0.000000 -0.000000 0.000000
-0.000000 -0.000000 0.000000
-0.000000 -0.000000 0.000000
-0.000000 -0.000000 0.000000
-0.000000 -0.000000 0.000000
-0.000000 -0.000000 0.000000
-0.000000 -0.000000 0.000000
-0.000000 -0.000000 0.000000
-0.000000 -0.000000 0.000000
-0.000000 -0.000000 0.000000
-0.000000 -0.000000 0.000000
-0.000000 -0.000000 0.000000
-0.000000 -0.000000 0.000000
-0.000000 -0.000000 0.000000
-0.000000 -0.000000 0.000000
-0.000000 -0.000000 0.000000
-0.000000 -0.000000 0.000000
-0.000000 -0.000000 0.000000
-0.000000 -0.000000 0.000000
-0.000000 -0.000000 0.000000
-0.000000 -0.000000 0.000000
-0.000000 -0.000000 0.000000
-0.000000 -0.000000 0.000000
-0.000000 -0.000000 0.000000
-0.000000 -0.000000 0.000000
-0.000000 -0.000000 0.000000
-0.000000 -0.000000 0.000000
-0.000000 -0.000000 0.000000
-0.000000 -0.000000 0.000000
-0.000000 -0.000000 0.000000
-0.000000 0.000000 0.000000
-0.000000 0.000000 0.000000
-0.000000 0.000000 0.000000
-0.000000 0.000000 0.000000
-0.000000 0.000000 0.000000
-0.000000 0.000000 0.000000
-0.000000 0.000000 0.000000
-0.000000 0.000000 0.000000
-0.000000 0.000000 0.000000
-0.000000 0.000000 0.000000
-0.000000 0.000000 0.000000
-0.000000 0.000000 0.000000
-0.000000 0.000000 0.000000
-0.000000 0.000000 0.000000
-0.000000 0.000000 0.000000
-0.000000 0.000000 0.000000
-0.000000 0.000000 0.000000
-0.000000 0.000000 0.000000
-0.000000 0.000000 0.000000
-0.000000 0.000000 0.000000
-0.000000 0.000000 0.000000
-0.000000 0.000000 0.000000
-0.000000 0.000000 0.000000
-0.000000 0.000000 0.000000
-0.000000 0.000000 0.000000
-0.000000 0.000000 0.000000
-0.000000 0.000000 0.000000
-0.000000 0.000000 0.000000
-0.000000 0.000000 0.000000
-0.000000 0.000000 0.000000
-0.000000 0.000000 0.000000
-0.000000 0.000000 0.000000
-0.000000 0.000000 0.000000
-0.000000 0.000000 0.000000
-0.000000 0.000000 0.000000
-0.000000 0.000000 0.000000
-0.000000 0.000000 0.000000
-0.000000 0.000000 0.000000
-0.000000 0.000000 0.000000
-0.000000 0.000000 0.000000
-0.000000 0.000000 0.000000
-0.000000 0.000000 0.000000
-0.000000 0.000000 0.000000
-0.000000 0.000000 0.000000
-0.000000 0.000000 0.000000
-0.000000 0.000000 0.000000
-0.000000 0.000000 0.000000
-0.000000 0.000000 0.000000
-0.000000 0.000000 0.000000
-0.000000 0.000000 0.000000
-0.000000 0.000000 0.000000
-0.000000 0.000000 0.000000
-0.000000 0.000000 0.000000
-0.000000 0.000000 0.000000
-0.000000 0.000000 0.000000
-0.000000 0.000000 0.000000
-0.000000 0.000000 0.000000
-0.000000 0.000000 0.000000
-0.000000 0.000000 0.000000
-0.000000 0.000000 0.000000
-0.000000 0.000000 0.000000
-0.000000 0.000000 0.000000
-0.000000 0.000000 0.000000
-0.000000 0.000000 0.000000
-0.000000 0.000000 0.000000
-0.000000 0.000000 0.000000
-0.000000 0.000000 0.000000
-0.000000 0.000000 0.000000
-0.000000 0.000000 0.000000
-0.000000 0.000000 0.000000
-0.000000 0.000000 0.000000
-0.000000 0.000000 0.000000
-0.000000 0.000000 0.000000
-0.000000 0.000000 0.000000
-0.000000 0.000000 0.000000
-0.000000 0.000000 0.000000
-0.000000 0.000000 0.000000
-0.000000 0.000000 0.000000
-0.000000 0.000000 0.000000
-0.000000 0.000000 0.000000
-0.000000 0.000000 0.000000
-0.000000 0.000000 0.000000
-0.000000 0.000000 0.000000
-0.000000 0.000000 0.000000
-0.000000 0.000000 0.000000
-0.000000 0.000000 0.000000
-0.000000 0.000000 0.000000
-0.000000 0.000000 0.000000
-0.000000 0.000000 0.000000
-0.000000 0.000000 0.000000
-0.000000 0.000000 0.000000
-0.000000 0.000000 0.000000
-0.000000 0.000000 0.000000
-0.000000 0.000000 0.000000
-0.000000 0.000000 0.000000
-5.013235 3.348453 0.830995
-5.004911 3.387483 0.832961
-0.000000 0.000000 0.000000
-5.050902 3.509726 0.847114
-5.046297 3.552633 0.849866
-5.034090 3.590436 0.851438
-5.024824 3.630544 0.853535
-5.024055 3.677112 0.857073
-5.014939 3.717905 0.859301
-5.004718 3.758128 0.861398
-5.001294 3.803766 0.864674
-4.997498 3.849502 0.867950
-4.991765 3.894115 0.870964
-4.987227 3.940032 0.874240
-4.990056 3.992230 0.878827
-4.995512 4.047106 0.883937
-4.995883 4.098427 0.888262
-4.999624 4.153070 0.893242
-4.995294 4.201533 0.896911
-4.976969 4.238531 0.898221
-4.974146 4.289054 0.902284
-4.969397 4.338398 0.906084
-4.965714 4.389158 0.910146
-4.960855 4.439373 0.914078
-4.963649 4.497014 0.919451
-4.962268 4.551506 0.924168
-4.958951 4.604800 0.928624
-4.942885 4.646682 0.930852
-4.931519 4.693323 0.933997
-4.945471 4.764758 0.941859
-4.939566 4.817852 0.946184
-4.936722 4.874534 0.951164
-4.936173 4.934165 0.956668
-4.926713 4.985511 0.960599
-4.917501 5.037635 0.964661
-4.913340 5.095541 0.969772
-4.905917 5.150714 0.974359
-4.903437 5.211762 0.979994
-4.900391 5.272973 0.985629
-4.898788 5.336532 0.991657
-4.889263 5.392191 0.996243
-4.875269 5.443502 1.000044
-4.833236 5.463663 0.998340
-4.778744 5.469329 0.994147
-4.714647 5.463278 0.987987
-4.657238 5.464190 0.983139
-4.588501 5.450956 0.975931
-4.528979 5.447756 0.970558
-4.475962 5.451694 0.966496
-4.420569 5.452106 0.961909
-4.357904 5.442760 0.955750
-4.302901 5.442183 0.951164
-4.229153 5.416915 0.942515
-4.183727 5.427062 0.939894
-4.131130 5.427391 0.935700
-4.074517 5.421732 0.930590
-4.016948 5.413992 0.925217
-3.961386 5.408150 0.920237
-3.910697 5.408257 0.916306
-3.858427 5.405527 0.911981
-3.802341 5.396687 0.906739
-3.754436 5.398757 0.903332
-3.702721 5.394722 0.899008
-3.652310 5.391898 0.894945
-3.599869 5.385364 0.890359
-3.544370 5.373425 0.884986
-3.498892 5.375963 0.881972
-0.191963 0.300986 0.081285
-0.177376 0.282061 0.078140
-3.336805 5.339423 0.866377
-0.000000 0.000000 0.000000
-0.000000 0.000000 0.000000
-0.000000 0.000000 0.000000
-0.000000 0.000000 0.000000
