# This PCD file was generated using the MATLAB® pcwrite function
# from Computer Vision Toolbox®.
# .PCD v.7 - Point Cloud Data file format
VERSION .7
FIELDS x y z
SIZE 4 4 4
TYPE F F F
COUNT 1 1 1
WIDTH 1713
HEIGHT 1
VIEWPOINT 0 0 0 1 0 0 0
POINTS 1713
DATA ascii
-0.000000 0.000000 0.000000
-0.000000 0.000000 0.000000
-0.000000 0.000000 0.000000
-0.000000 0.000000 0.000000
-0.000000 0.000000 0.000000
-0.000000 0.000000 0.000000
-0.000000 0.000000 0.000000
-0.000000 0.000000 0.000000
-0.000000 0.000000 0.000000
-0.000000 0.000000 0.000000
-0.000000 0.000000 0.000000
-5.233669 1.585723 1.299082
-5.235009 1.621263 1.301789
-5.224962 1.653354 1.301789
-5.231406 1.690772 1.305851
-5.265344 1.737483 1.316681
-0.000000 0.000000 0.000000
-5.188342 1.782981 1.303143
-5.188337 1.818648 1.305851
-5.198182 1.857985 1.311040
-5.193091 1.892179 1.312620
-5.186863 1.926041 1.313973
-5.188617 1.962999 1.317358
-5.190111 2.000051 1.320742
-5.189532 2.036483 1.323676
-5.185081 2.071538 1.325706
-5.182201 2.107349 1.328188
-5.177275 2.142458 1.330219
-5.167624 2.175696 1.331121
-5.165820 2.212346 1.334055
-5.163760 2.249056 1.336988
-5.169462 2.289373 1.341952
-5.169531 2.327445 1.345562
-5.164899 2.363579 1.348044
-5.157366 2.398510 1.349849
-5.152242 2.434687 1.352331
-5.153894 2.474262 1.356618
-5.147373 2.510107 1.358874
-5.149336 2.550287 1.363387
-5.136202 2.583148 1.364064
-5.134140 2.621701 1.367674
-5.130066 2.659428 1.370833
-5.123999 2.696298 1.373540
-5.122828 2.735945 1.377602
-5.122219 2.776143 1.381889
-5.126432 2.819252 1.387529
-5.126904 2.860619 1.392267
-5.123670 2.900179 1.396103
-5.123523 2.941746 1.400841
-5.119689 2.981459 1.404677
-5.113883 3.020246 1.408062
-5.101942 3.055570 1.409867
-5.096422 3.094906 1.413477
-5.097249 3.138373 1.418892
-5.100212 3.183514 1.424984
-5.094579 3.223601 1.428820
-5.094387 3.267419 1.434235
-5.093031 3.310825 1.439424
-5.087266 3.351658 1.443486
-5.080380 3.392003 1.447322
-5.069156 3.429661 1.450029
-5.064892 3.472265 1.454767
-5.068299 3.520502 1.461762
-5.069709 3.567789 1.468305
-5.062003 3.609007 1.472367
-5.060300 3.654825 1.478233
-5.054292 3.697883 1.482971
-5.053426 3.745064 1.489289
-5.052170 3.792372 1.495607
-5.048972 3.838626 1.501473
-5.038448 3.879636 1.505309
-5.040672 3.930842 1.512980
-5.036339 3.977392 1.518847
-5.033145 4.025253 1.525164
-5.046211 4.086709 1.536446
-5.043643 4.136124 1.543215
-5.019669 4.168238 1.543666
-5.008914 4.211496 1.548179
-5.008945 4.264249 1.556076
-5.009255 4.317797 1.564198
-5.012766 4.374710 1.573449
-5.007734 4.424734 1.580218
-5.001550 4.474210 1.586762
-5.002169 4.530314 1.595561
-4.997977 4.582645 1.603007
-4.996901 4.638407 1.611581
-4.992487 4.691658 1.619253
-4.993255 4.750401 1.628729
-4.989980 4.805951 1.637077
-4.982722 4.858238 1.644298
-4.976397 4.911984 1.651969
-4.968219 4.964458 1.659189
-4.962325 5.019787 1.667312
-4.964787 5.084289 1.678368
-4.955144 5.137091 1.685588
-4.958481 5.204069 1.697321
-4.953836 5.263477 1.706572
-4.947985 5.322310 1.715597
-4.938960 5.378399 1.723720
-4.921577 5.425919 1.729135
-4.880389 5.447309 1.726427
-4.831376 5.459644 1.721012
-4.765082 5.451782 1.709505
-4.704161 5.449212 1.699803
-4.632705 5.433500 1.686265
-4.575428 5.433510 1.677691
-4.521442 5.436767 1.670245
-4.463260 5.434299 1.661220
-4.391775 5.414678 1.647231
-4.345067 5.424798 1.642267
-4.264550 5.391765 1.624668
-4.221789 5.405547 1.621058
-4.179021 5.419008 1.617447
-0.233055 0.307897 0.121964
-0.234675 0.313992 0.123317
-0.222290 0.301347 0.119256
-0.223317 0.306634 0.120384
-0.222002 0.308788 0.120610
-0.218971 0.308559 0.120159
-0.215951 0.308304 0.119707
-0.214055 0.309623 0.119707
-0.211048 0.309325 0.119256
-0.209146 0.310614 0.119256
-0.207778 0.312701 0.119482
-0.205855 0.313970 0.119482
-0.203925 0.315227 0.119482
-0.202513 0.317292 0.119707
-0.200041 0.317706 0.119482
-0.196538 0.316450 0.118805
-0.194593 0.317650 0.118805
-0.193653 0.320502 0.119256
-0.191683 0.321684 0.119256
-0.189209 0.322016 0.119030
-0.186739 0.322329 0.118805
-0.000000 0.000000 0.000000
-0.000000 0.000000 0.000000
-0.180299 0.324862 0.118579
-0.000000 0.000000 0.000000
-0.000000 0.000000 0.000000
-0.000000 0.000000 0.000000
-0.000000 0.000000 0.000000
-0.000000 0.000000 0.000000
-0.000000 0.000000 0.000000
-0.157852 0.315775 0.114292
-0.000000 0.000000 0.000000
-0.000000 0.000000 0.000000
-0.000000 0.000000 0.000000
-0.000000 0.000000 0.000000
-0.000000 0.000000 0.000000
-0.000000 0.000000 0.000000
-0.000000 0.000000 0.000000
-0.000000 0.000000 0.000000
-0.000000 0.000000 0.000000
-0.142419 0.334707 0.116774
-0.000000 0.000000 0.000000
-0.000000 0.000000 0.000000
-0.136602 0.338174 0.117000
-0.133437 0.336293 0.116323
-0.133868 0.343451 0.117902
-0.132109 0.345175 0.118128
-0.130334 0.346890 0.118354
-0.128883 0.349509 0.118805
-0.127071 0.351209 0.119030
-0.125242 0.352899 0.119256
-0.124044 0.356418 0.119933
-0.128520 0.376514 0.124671
-0.127143 0.380065 0.125348
-0.124196 0.378988 0.124897
-0.122469 0.381596 0.125348
-0.119536 0.380483 0.124897
-0.117488 0.382140 0.125122
-0.114858 0.381922 0.124897
-0.112235 0.381685 0.124671
-0.109347 0.380496 0.124220
-0.108075 0.384908 0.125122
-0.108314 0.394952 0.127379
-0.101052 0.377742 0.123092
-0.091517 0.351040 0.116548
-0.000000 0.000000 0.000000
-0.000000 0.000000 0.000000
-0.000000 0.000000 0.000000
-0.000000 0.000000 0.000000
-0.000000 0.000000 0.000000
-0.000000 0.000000 0.000000
-0.000000 0.000000 0.000000
-0.000000 0.000000 0.000000
-0.000000 0.000000 0.000000
-0.000000 0.000000 0.000000
-0.000000 0.000000 0.000000
-0.000000 0.000000 0.000000
-0.000000 0.000000 0.000000
-0.061896 0.362396 0.117677
-0.000000 0.000000 0.000000
-0.000000 0.000000 0.000000
-0.000000 0.000000 0.000000
-0.000000 0.000000 0.000000
-0.000000 0.000000 0.000000
-0.049437 0.371186 0.119256
-0.047033 0.370516 0.119030
-0.044759 0.370798 0.119030
-0.042483 0.371065 0.119030
-0.040097 0.370351 0.118805
-0.037824 0.370590 0.118805
-0.035453 0.369846 0.118579
-0.033363 0.371996 0.119030
-0.031333 0.375106 0.119707
-0.029109 0.376262 0.119933
-0.026944 0.378377 0.120384
-0.024688 0.379507 0.120610
-0.022539 0.382568 0.121287
-0.020355 0.385617 0.121964
-0.017988 0.385735 0.121964
-0.015621 0.385838 0.121964
-0.013253 0.385927 0.121964
-0.010885 0.386001 0.121964
-0.008541 0.387034 0.122189
-0.006147 0.386105 0.121964
-0.003778 0.386136 0.121964
-0.001402 0.385177 0.121738
0.000962 0.384205 0.121512
0.003303 0.381269 0.120835
0.005608 0.378319 0.120159
0.007860 0.374381 0.119256
0.010157 0.374326 0.119256
0.012395 0.372309 0.118805
0.014643 0.371252 0.118579
0.016921 0.371156 0.118579
0.019245 0.372018 0.118805
0.021634 0.373838 0.119256
0.023928 0.373698 0.119256
0.026807 0.382293 0.121287
0.029721 0.389894 0.123092
0.032344 0.392618 0.123769
0.034669 0.391441 0.123543
0.037338 0.394132 0.124220
0.039945 0.395834 0.124671
0.042171 0.393644 0.124220
0.044693 0.394346 0.124446
0.047225 0.395032 0.124671
0.049647 0.394735 0.124671
0.052069 0.394423 0.124671
0.055402 0.400854 0.126251
0.058270 0.403400 0.126928
0.061029 0.404962 0.127379
0.063513 0.404580 0.127379
0.066456 0.407069 0.128056
0.068953 0.406653 0.128056
0.071447 0.406223 0.128056
0.074454 0.408653 0.128733
0.077315 0.410104 0.129184
0.080014 0.410579 0.129409
0.083669 0.415814 0.130763
0.086610 0.417202 0.131215
0.090375 0.422382 0.132568
0.092758 0.420867 0.132343
0.095765 0.422191 0.132794
0.097916 0.419697 0.132343
0.100265 0.418140 0.132117
0.103059 0.418464 0.132343
0.105861 0.418769 0.132568
0.108428 0.418111 0.132568
0.111983 0.421207 0.133471
0.114312 0.419571 0.133245
0.115587 0.414167 0.132117
0.118922 0.416262 0.132794
0.125265 0.428626 0.135953
0.000000 0.000000 0.000000
0.000000 0.000000 0.000000
0.000000 0.000000 0.000000
0.000000 0.000000 0.000000
0.000000 0.000000 0.000000
0.000000 0.000000 0.000000
0.000000 0.000000 0.000000
0.000000 0.000000 0.000000
0.000000 0.000000 0.000000
0.000000 0.000000 0.000000
0.200554 0.547360 0.167541
0.201536 0.539725 0.165962
0.208289 0.547591 0.168218
0.000000 0.000000 0.000000
0.210725 0.534110 0.165510
0.000000 0.000000 0.000000
0.216163 0.528777 0.164834
0.220893 0.531041 0.165736
0.222258 0.525186 0.164608
0.223176 0.518439 0.163254
0.000000 0.000000 0.000000
0.000000 0.000000 0.000000
0.242675 0.536453 0.168895
0.252446 0.549129 0.172505
0.000000 0.000000 0.000000
0.000000 0.000000 0.000000
0.000000 0.000000 0.000000
0.000000 0.000000 0.000000
0.000000 0.000000 0.000000
0.000000 0.000000 0.000000
0.000000 0.000000 0.000000
0.000000 0.000000 0.000000
0.000000 0.000000 0.000000
0.263622 0.491363 0.161675
0.262920 0.482884 0.159870
0.270102 0.488945 0.161900
0.269301 0.480472 0.160095
0.271764 0.477962 0.159870
0.000000 0.000000 0.000000
0.000000 0.000000 0.000000
0.000000 0.000000 0.000000
0.000000 0.000000 0.000000
0.000000 0.000000 0.000000
0.000000 0.000000 0.000000
0.000000 0.000000 0.000000
0.000000 0.000000 0.000000
0.000000 0.000000 0.000000
3.110176 4.784244 1.354136
3.143760 4.771579 1.355941
3.181091 4.764354 1.359325
3.220088 4.759272 1.363387
3.262447 4.758711 1.368802
3.306586 4.760210 1.374894
3.343579 4.750987 1.378053
3.391891 4.757355 1.385724
3.436415 4.757780 1.391816
3.472445 4.746041 1.394524
3.516578 4.744998 1.400390
3.560829 4.743592 1.406257
3.604016 4.740269 1.411672
3.641353 4.728874 1.414831
3.687670 4.728724 1.421374
3.729895 4.722830 1.426338
3.773404 4.718118 1.431753
3.822511 4.719863 1.439199
3.869311 4.718169 1.445742
3.913744 4.713078 1.451383
3.961394 4.711349 1.458152
4.005381 4.704760 1.463567
4.047528 4.695593 1.468305
4.098679 4.696363 1.476202
4.151281 4.698142 1.484551
4.163145 4.653701 1.478684
4.289045 4.735676 1.512303
4.337770 4.730815 1.519072
4.384607 4.723392 1.525164
4.447526 4.732612 1.536672
4.490580 4.720057 1.541410
4.534998 4.708557 1.546599
4.596443 4.714129 1.557430
4.652652 4.713575 1.566455
4.703518 4.706994 1.573675
4.763483 4.708871 1.583828
4.815981 4.702699 1.591500
4.867881 4.695384 1.598946
4.910704 4.678869 1.603458
4.971949 4.679369 1.613837
5.021256 4.668013 1.620381
5.080655 4.665454 1.630083
5.137323 4.659723 1.638882
5.207171 4.665174 1.651743
5.247370 4.643468 1.655354
5.321234 4.650940 1.669343
5.378428 4.643035 1.678142
5.413487 4.615636 1.680173
5.517705 4.646351 1.703187
5.580562 4.641068 1.713566
5.642807 4.634569 1.723720
5.698373 4.621955 1.731843
5.754755 4.609443 1.740191
5.808142 4.593994 1.747637
5.826241 4.550472 1.744704
5.827055 4.493810 1.736806
5.819644 4.431406 1.726653
5.810910 4.368679 1.716274
5.797715 4.303323 1.704767
5.802010 4.251541 1.698449
5.801942 4.197013 1.691003
5.803803 4.144346 1.684234
5.802849 4.090131 1.676788
5.799850 4.034971 1.668891
5.789968 3.975590 1.659189
5.790061 3.923589 1.652420
5.790545 3.872279 1.645877
5.781674 3.815208 1.636852
5.769057 3.756265 1.626924
5.759213 3.699728 1.617899
5.758769 3.649715 1.611581
5.726541 3.580216 1.596689
5.729331 3.533246 1.591500
5.730928 3.485871 1.586085
5.724643 3.434098 1.578639
5.719616 3.383527 1.571644
5.723441 3.338548 1.567132
5.719330 3.289278 1.560588
5.716526 3.241145 1.554496
5.726101 3.200303 1.551789
5.724300 3.153352 1.546148
5.719570 3.105150 1.539830
5.717042 3.058504 1.534190
5.711573 3.010643 1.527872
5.719564 2.970152 1.525164
5.718601 2.925237 1.520200
5.710344 2.876939 1.513431
5.706073 2.831018 1.507791
5.704081 2.786541 1.502827
5.698247 2.740507 1.496960
5.692944 2.695066 1.491320
5.697894 2.654733 1.488386
5.692824 2.609974 1.482971
5.693636 2.568182 1.479136
5.691478 2.525292 1.474623
5.694366 2.484865 1.471464
5.696973 2.444498 1.468305
5.690324 2.400404 1.462890
5.679750 2.354991 1.456572
5.681463 2.314948 1.453414
5.679282 2.273523 1.449352
5.671367 2.230073 1.443937
5.660408 2.185752 1.437845
5.657317 2.144760 1.433784
5.659415 2.105927 1.431076
5.663994 2.068153 1.429045
5.656402 2.026129 1.424082
5.648508 1.984277 1.419118
5.643077 1.943550 1.414831
5.641974 1.904523 1.411672
5.634131 1.863441 1.406934
5.632485 1.824629 1.403775
5.640789 1.789151 1.403098
5.642357 1.751616 1.400841
5.640882 1.713279 1.397908
5.641949 1.675859 1.395652
5.633416 1.635772 1.391139
5.618043 1.593990 1.385047
5.616453 1.556365 1.382340
5.616493 1.519328 1.380083
5.606872 1.479861 1.375571
5.613016 1.444701 1.374894
5.611381 1.407623 1.372412
5.601932 1.368769 1.368125
5.591271 1.329858 1.363612
5.586987 1.292668 1.360679
5.580557 1.255153 1.357295
5.584347 1.220055 1.356392
5.581245 1.183542 1.353910
5.574089 1.146327 1.350526
5.573375 1.110579 1.348721
5.576258 1.075622 1.347818
5.579880 1.040850 1.347141
5.577533 1.005036 1.345111
5.574956 0.969290 1.343080
5.569270 0.933131 1.340372
5.563349 0.897077 1.337665
5.560085 0.861580 1.335634
5.562376 0.827017 1.334957
5.532625 0.787919 1.326834
2.519896 0.342460 0.621511
2.523882 0.327244 0.621962
5.500751 0.680319 1.316230
5.520302 0.648375 1.319840
5.536763 0.615894 1.322773
5.516216 0.579360 1.317132
2.955421 0.291534 0.720338
3.000806 0.277448 0.730491
3.022834 0.260796 0.735229
3.013695 0.241384 0.732747
2.870361 0.212130 0.699128
0.000000 0.000000 0.000000
2.781348 0.171225 0.677919
0.000000 0.000000 0.000000
2.733616 0.134616 0.666412
0.000000 0.000000 0.000000
2.709750 0.100114 0.660545
2.746341 0.084611 0.668894
2.746809 0.067758 0.668894
2.747173 0.050902 0.668894
0.000000 0.000000 0.000000
0.000000 0.000000 0.000000
2.757386 0.000333 0.671150
2.753440 -0.016565 0.670248
2.735752 -0.033254 0.666186
0.000000 -0.000000 0.000000
2.730268 -0.066706 0.665058
2.710332 -0.082870 0.660545
2.690301 -0.098792 0.656033
0.000000 -0.000000 0.000000
0.000000 -0.000000 0.000000
0.000000 -0.000000 0.000000
2.488694 -0.152707 0.610004
2.382731 -0.160936 0.585636
2.305913 -0.170004 0.568037
2.281519 -0.182300 0.562621
2.287152 -0.196877 0.564201
2.287841 -0.211085 0.564652
2.331103 -0.229487 0.575031
2.298644 -0.240557 0.567811
2.556639 -0.283293 0.628280
0.000000 -0.000000 0.000000
0.000000 -0.000000 0.000000
2.682395 -0.347258 0.658966
0.000000 -0.000000 0.000000
2.682755 -0.380831 0.660094
0.000000 -0.000000 0.000000
0.000000 -0.000000 0.000000
2.800340 -0.450198 0.689426
2.965694 -0.495396 0.728912
2.962598 -0.513584 0.728912
2.977611 -0.535019 0.733199
2.969482 -0.552390 0.732071
2.970821 -0.571518 0.733199
2.967258 -0.589736 0.733199
2.975991 -0.610472 0.736132
2.971236 -0.628520 0.735906
2.962564 -0.645704 0.734778
2.942385 -0.660250 0.730942
2.942076 -0.679166 0.731845
2.932165 -0.695858 0.730491
2.914588 -0.710611 0.727332
2.696570 -0.675100 0.676340
2.480993 -0.637427 0.625798
2.457250 -0.647434 0.621060
2.460756 -0.664528 0.622865
2.442546 -0.675725 0.619481
2.429917 -0.688313 0.617450
2.724172 -0.789604 0.689426
2.844449 -0.843364 0.719661
2.846680 -0.863060 0.721466
2.883211 -0.893471 0.731619
2.896252 -0.917019 0.736132
2.892425 -0.935372 0.736583
2.869977 -0.947610 0.732522
2.881652 -0.971106 0.736809
2.876560 -0.989086 0.737034
2.860324 -1.003175 0.734552
2.861454 -1.023328 0.736358
2.852375 -1.039867 0.735681
2.852334 -1.059721 0.737260
2.850334 -1.078926 0.738388
2.840024 -1.094994 0.737486
2.835973 -1.113467 0.738163
2.831802 -1.131931 0.738839
2.829315 -1.151119 0.739968
2.830301 -1.171809 0.741998
2.833833 -1.193687 0.744706
2.828247 -1.211819 0.745157
2.824331 -1.230706 0.746060
2.815836 -1.247618 0.745834
2.810793 -1.266071 0.746511
2.800313 -1.282079 0.745834
2.799462 -1.302522 0.747639
2.794940 -1.321339 0.748542
2.796442 -1.343099 0.751024
2.799533 -1.365782 0.753957
2.802450 -1.388552 0.756890
2.801711 -1.409659 0.758921
2.810364 -1.435681 0.763433
2.812746 -1.458725 0.766366
2.812365 -1.480491 0.768623
2.807525 -1.500013 0.769751
2.813687 -1.525564 0.773812
2.811103 -1.546554 0.775617
2.817727 -1.572789 0.779904
2.810567 -1.591488 0.780581
2.788075 -1.601430 0.777197
2.780722 -1.619977 0.777874
0.000000 -0.000000 0.000000
2.740572 -1.641970 0.772458
2.702963 -1.642073 0.765013
2.691177 -1.657606 0.764561
2.636323 -1.646240 0.752377
2.602295 -1.647283 0.745834
2.599520 -1.667952 0.747865
2.536138 -1.649368 0.733199
2.543870 -1.676686 0.738163
2.519758 -1.683070 0.734327
2.844285 -1.924991 0.827964
2.426589 -1.664301 0.714020
2.412330 -1.676381 0.712892
2.353393 -1.656959 0.699128
2.353495 -1.678718 0.702062
2.363687 -1.707954 0.707928
2.351590 -1.721275 0.707477
2.360555 -1.750170 0.713117
2.321719 -1.743571 0.704995
2.315631 -1.761321 0.706349
2.327168 -1.792729 0.712892
2.313819 -1.805178 0.712215
2.308052 -1.823566 0.713794
2.301385 -1.841344 0.715148
2.302915 -1.865851 0.718984
2.302725 -1.889211 0.722368
2.299335 -1.910149 0.724850
2.303978 -1.938012 0.729814
2.317269 -1.973579 0.737486
0.000000 -0.000000 0.000000
0.602946 -0.527566 0.218083
0.000000 -0.000000 0.000000
0.570283 -0.511547 0.209960
0.583744 -0.530075 0.215149
0.584072 -0.536938 0.216277
0.581480 -0.541175 0.216503
0.585959 -0.552070 0.218985
0.588208 -0.561026 0.220790
0.593176 -0.572733 0.223498
0.586163 -0.572962 0.222370
0.576395 -0.570389 0.220339
0.575641 -0.576669 0.221241
0.568667 -0.576727 0.220113
0.552864 -0.567661 0.216052
0.540577 -0.561929 0.213119
0.533758 -0.561709 0.211991
0.522287 -0.556462 0.209283
0.512892 -0.553235 0.207252
0.496307 -0.542023 0.202740
0.483152 -0.534236 0.199355
0.479215 -0.536465 0.199130
0.472040 -0.535018 0.197776
0.462336 -0.530570 0.195519
0.452704 -0.526024 0.193263
0.448204 -0.527309 0.192812
0.441822 -0.526324 0.191684
0.435469 -0.525280 0.190556
0.431619 -0.527190 0.190330
0.428990 -0.530585 0.190556
0.426944 -0.534728 0.191007
0.423051 -0.536573 0.190781
0.418551 -0.537624 0.190330
0.417030 -0.542496 0.191007
0.411922 -0.542719 0.190330
0.404485 -0.539786 0.188750
0.396520 -0.536001 0.186945
0.393223 -0.538424 0.186945
0.387057 -0.536880 0.185817
0.379791 -0.533696 0.184238
0.374264 -0.532831 0.183335
0.367092 -0.529520 0.181756
0.362733 -0.530157 0.181305
0.358380 -0.530760 0.180853
0.356741 -0.535378 0.181530
0.355060 -0.539996 0.182207
0.352803 -0.543797 0.182658
0.351566 -0.549230 0.183561
0.348190 -0.551376 0.183561
0.344800 -0.553503 0.183561
0.341397 -0.555608 0.183561
0.336969 -0.556028 0.183110
0.333050 -0.557249 0.182884
0.330120 -0.560121 0.183110
0.326186 -0.561294 0.182884
0.322250 -0.562441 0.182658
0.317832 -0.562713 0.182207
0.314373 -0.564652 0.182207
0.310902 -0.566571 0.182207
0.306025 -0.565899 0.181530
0.303467 -0.569484 0.181982
0.299967 -0.571336 0.181982
0.296006 -0.572301 0.181756
0.293821 -0.576708 0.182433
0.288522 -0.575020 0.181530
0.285855 -0.578525 0.181982
0.281872 -0.579393 0.181756
0.276622 -0.577600 0.180853
0.271405 -0.575765 0.179951
0.268278 -0.578302 0.180176
0.263506 -0.577281 0.179500
0.261162 -0.581551 0.180176
0.257588 -0.583142 0.180176
0.254005 -0.584712 0.180176
0.250413 -0.586259 0.180176
0.248326 -0.591375 0.181079
0.245439 -0.594687 0.181530
0.248038 -0.611518 0.185366
0.245730 -0.616646 0.186269
0.238375 -0.609077 0.184012
0.236038 -0.614163 0.184915
0.233993 -0.620154 0.186043
0.230523 -0.622491 0.186269
0.230042 -0.633044 0.188525
0.227797 -0.639029 0.189653
0.224195 -0.641334 0.189879
0.219938 -0.641777 0.189653
0.217243 -0.646806 0.190556
0.213577 -0.649052 0.190781
0.208989 -0.648496 0.190330
0.210311 -0.666481 0.194391
0.207374 -0.671480 0.195294
0.202117 -0.669011 0.194391
0.199396 -0.674908 0.195519
0.193892 -0.671441 0.194391
0.189768 -0.672618 0.194391
0.186418 -0.676586 0.195068
0.180736 -0.672075 0.193714
0.174121 -0.663752 0.191458
0.169073 -0.661035 0.190556
0.165013 -0.662060 0.190556
0.162337 -0.668738 0.191909
0.157553 -0.666878 0.191232
0.154997 -0.674476 0.192812
0.152353 -0.682067 0.194391
0.148165 -0.682989 0.194391
0.144579 -0.686744 0.195068
0.139184 -0.681893 0.193714
0.130042 -0.657894 0.187848
0.144105 -0.752421 0.209960
0.000000 -0.000000 0.000000
0.000000 -0.000000 0.000000
1.084406 -6.236244 1.498540
1.044993 -6.236055 1.496960
1.013076 -6.281782 1.506211
0.975558 -6.294619 1.507791
0.941938 -6.334212 1.515688
0.907594 -6.371699 1.523134
0.871509 -6.399349 1.528323
0.835118 -6.426796 1.533513
0.798064 -6.451136 1.538025
0.765979 -6.519768 1.552917
0.727795 -6.540805 1.556753
0.691216 -6.579058 1.564650
0.651987 -6.594809 1.567357
0.617274 -6.660768 1.581798
0.578075 -6.683842 1.586310
0.538616 -6.706684 1.590823
0.498537 -6.724436 1.594208
0.458592 -6.746808 1.598720
0.419175 -6.781582 1.606166
0.379457 -6.818070 1.614063
0.339451 -6.857245 1.622637
0.299022 -6.897157 1.631437
0.258297 -6.941698 1.641364
0.216824 -6.979180 1.649713
0.174950 -7.018362 1.658512
0.132492 -7.051446 1.665958
0.089410 -7.066738 1.669343
0.046457 -7.128528 1.683557
0.002737 -7.165699 1.692131
-0.041340 -7.185065 1.696644
-0.085723 -7.210003 1.702510
-0.130744 -7.253174 1.712664
-0.175971 -7.282427 1.719658
-0.222207 -7.332820 1.731617
-0.269281 -7.388760 1.744929
-0.315893 -7.417142 1.751924
-0.365037 -7.489990 1.769297
-0.413224 -7.528465 1.778774
-0.461601 -7.561767 1.787122
-0.510402 -7.594758 1.795471
-0.559910 -7.631319 1.804721
-0.608960 -7.655903 1.811265
-0.657585 -7.671436 1.815777
-0.717639 -7.808897 1.848719
-0.767724 -7.826646 1.853909
-0.819871 -7.861516 1.863160
-0.873863 -7.908628 1.875344
-0.926546 -7.938920 1.883692
-0.982958 -7.995938 1.898358
-1.041351 -8.062222 1.915281
-1.097199 -8.102985 1.926337
-1.153722 -8.144331 1.937618
-1.214212 -8.208416 1.954315
-1.270637 -8.240288 1.963566
-1.329812 -8.286204 1.976201
-1.397604 -8.379750 2.000118
-1.450822 -8.381577 2.002600
-1.503082 -8.377312 2.003728
-1.555879 -8.375594 2.005533
-1.607976 -8.369717 2.006436
-1.660817 -8.367337 2.008241
-1.713690 -8.364625 2.010046
-1.766592 -8.361578 2.011851
-1.818486 -8.353436 2.012528
-1.870559 -8.345923 2.013430
-1.922609 -8.338086 2.014333
-1.975980 -8.335612 2.016589
-2.030775 -8.338476 2.020199
-2.083082 -8.330585 2.021327
-2.134884 -8.320477 2.022004
-2.187632 -8.313816 2.023584
-2.239618 -8.303999 2.024486
-2.294677 -8.305126 2.028096
-2.351160 -8.310576 2.032835
-2.405358 -8.307223 2.035542
-2.461817 -8.310990 2.040055
-2.517000 -8.309715 2.043439
-2.571396 -8.305283 2.046147
-2.624657 -8.296780 2.047952
-2.678211 -8.288862 2.049983
-2.731461 -8.279675 2.051788
-2.786874 -8.276608 2.055172
-2.845200 -8.281466 2.060587
-2.900791 -8.277644 2.063972
-2.955460 -8.270699 2.066679
-3.006152 -8.252409 2.066679
-3.063849 -8.252989 2.071418
-3.114775 -8.234944 2.071643
-3.167346 -8.221132 2.072997
-3.226978 -8.225124 2.078863
-3.287140 -8.229598 2.084955
-3.346010 -8.230031 2.090145
-3.403520 -8.226451 2.094432
-3.459222 -8.217983 2.097591
-3.514948 -8.209142 2.100749
-3.576917 -8.214218 2.107518
-3.637503 -8.215278 2.113385
-3.694239 -8.207019 2.116995
-3.748579 -8.193056 2.119251
-3.806582 -8.186687 2.123538
-3.870057 -8.191364 2.130759
-2.615025 -5.447259 1.431979
-2.654375 -5.443371 1.435137
-2.679946 -5.411266 1.431076
-2.867988 -5.702852 1.510949
-2.855981 -5.593168 1.487033
-2.843635 -5.485579 1.463567
-2.834159 -5.386116 1.442132
-2.836416 -5.311043 1.427015
-2.526491 -4.661369 1.260499
-2.552699 -4.641511 1.259371
-2.584927 -4.632567 1.261176
-2.621938 -4.631881 1.265237
-2.667767 -4.646124 1.273360
-2.710927 -4.654927 1.280129
-2.748353 -4.653306 1.284190
-2.784860 -4.649729 1.287800
-2.821425 -4.645879 1.291410
-2.860091 -4.645073 1.295923
-2.898853 -4.643967 1.300436
-2.933021 -4.635149 1.302918
-2.972974 -4.635108 1.307881
-3.013568 -4.635568 1.313071
-3.046241 -4.623499 1.314876
-3.082665 -4.616875 1.318260
-3.120759 -4.612400 1.322322
-3.156711 -4.604415 1.325481
-3.177681 -4.574556 1.322547
-3.206251 -4.555768 1.322773
-3.231317 -4.532043 1.321645
-3.258494 -4.511341 1.321419
-3.292440 -4.499912 1.323901
-3.320569 -4.480408 1.324127
-3.365538 -4.483326 1.330896
-3.402416 -4.475001 1.334506
-3.447042 -4.476429 1.341049
-3.488220 -4.472866 1.346239
-3.529483 -4.468965 1.351428
-3.570830 -4.464726 1.356618
-3.719529 -4.592655 1.401293
-3.758756 -4.583308 1.405354
-3.778097 -4.549664 1.402195
-3.872385 -4.605448 1.426112
-3.822279 -4.489604 1.398134
-3.793793 -4.401119 1.378278
-3.827131 -4.385099 1.380535
-3.962959 -4.484932 1.418666
-3.989754 -4.459805 1.418441
-4.024890 -4.443907 1.421148
-4.070513 -4.439236 1.427466
-4.114904 -4.432744 1.433332
-4.156034 -4.422323 1.438071
-4.167648 -4.380502 1.432881
-4.227557 -4.389235 1.443937
-4.261209 -4.370190 1.446193
-4.279049 -4.334946 1.443260
-5.829899 -5.834604 1.942808
-5.841344 -5.774747 1.934911
-4.976966 -4.859952 1.643621
-4.953411 -4.777912 1.626473
-4.959363 -4.725247 1.619027
-4.956344 -4.664677 1.608873
-4.957764 -4.608967 1.600299
-4.953665 -4.548803 1.590146
-4.942522 -4.482972 1.577962
-4.953975 -4.438256 1.572998
-4.974549 -4.401964 1.570967
-5.028602 -4.395084 1.579316
-5.073908 -4.380064 1.584957
-5.159987 -4.399425 1.603007
-5.204766 -4.382744 1.608422
-5.267509 -4.380632 1.619253
-5.732383 -4.708164 1.750570
-5.741495 -4.656943 1.744704
-5.731947 -4.591168 1.733422
-5.726395 -4.529314 1.723494
-5.712623 -4.461704 1.711310
-5.717523 -4.409311 1.704767
-5.717345 -4.353485 1.696870
-5.701906 -4.286702 1.684686
-5.691339 -4.224339 1.674081
-5.691223 -4.170331 1.666635
-5.684345 -4.111916 1.657384
-5.673002 -4.050912 1.647005
-5.668292 -3.995255 1.638657
-5.669511 -3.944262 1.632114
-5.674333 -3.896162 1.626698
-5.671522 -3.843232 1.619253
-5.662607 -3.786693 1.610227
-5.655653 -3.732018 1.601879
-5.651507 -3.679699 1.594433
-5.634640 -3.619672 1.583603
-5.631237 -3.568859 1.576608
-5.629902 -3.519775 1.570291
-5.623203 -3.467772 1.562619
-5.620240 -3.418518 1.556076
-5.613544 -3.367425 1.548630
-5.608109 -3.317537 1.541635
-5.615739 -3.275698 1.538251
-5.602800 -3.222231 1.529451
-5.602128 -3.176257 1.524036
-5.603655 -3.131839 1.519298
-5.600583 -3.085171 1.513431
-5.589444 -3.034474 1.505534
-5.589921 -2.990467 1.500796
-5.592653 -2.947932 1.496735
-5.587295 -2.901434 1.490643
-5.573771 -2.851119 1.482520
-5.570282 -2.806341 1.477105
-5.568199 -2.762581 1.472141
-5.562288 -2.717241 1.466275
-5.563054 -2.675457 1.462213
-5.560876 -2.632515 1.457475
-5.556615 -2.588878 1.452285
-5.547602 -2.543361 1.445968
-5.547120 -2.502061 1.441906
-5.557025 -2.465605 1.440553
-5.403305 -2.357788 1.397908
-5.318303 -2.281930 1.372863
-5.380672 -2.269711 1.385047
-5.416993 -2.245986 1.390688
-5.516374 -2.247645 1.412123
-5.519209 -2.209408 1.409415
-5.514531 -2.168367 1.404903
-5.502287 -2.124659 1.398585
-5.506111 -2.087402 1.396329
-5.505121 -2.048479 1.392944
-5.499285 -2.007975 1.388432
-5.497746 -1.969264 1.385047
-5.492263 -1.929355 1.380760
-5.474524 -1.885461 1.373540
-5.477684 -1.849029 1.371509
-5.471354 -1.809568 1.367222
-5.474940 -1.773559 1.365417
-5.476433 -1.736984 1.363161
-5.478615 -1.700748 1.361130
-5.478694 -1.663983 1.358648
-5.480397 -1.627837 1.356618
-5.471571 -1.588742 1.352105
-5.469971 -1.551946 1.349398
-5.470003 -1.515750 1.347141
-5.459453 -1.476812 1.342403
-5.453341 -1.439305 1.338793
-5.451692 -1.403144 1.336311
-5.447916 -1.366582 1.333378
-5.443896 -1.330120 1.330445
-5.435843 -1.292857 1.326609
-5.433234 -1.257061 1.324127
-5.443696 -1.224341 1.324804
-5.436830 -1.187794 1.321419
-5.443063 -1.154210 1.321194
-5.454813 -1.121772 1.322322
-5.452040 -1.086375 1.320065
-0.000000 -0.000000 0.000000
-0.000000 -0.000000 0.000000
-0.000000 -0.000000 0.000000
-0.000000 -0.000000 0.000000
-0.000000 -0.000000 0.000000
-0.000000 -0.000000 0.000000
-0.000000 -0.000000 0.000000
-0.000000 -0.000000 0.000000
-0.000000 -0.000000 0.000000
-0.000000 -0.000000 0.000000
-0.000000 -0.000000 0.000000
-0.000000 -0.000000 0.000000
-0.000000 -0.000000 0.000000
-0.000000 -0.000000 0.000000
-0.000000 -0.000000 0.000000
-0.000000 -0.000000 0.000000
-0.000000 -0.000000 0.000000
-0.000000 -0.000000 0.000000
-0.000000 -0.000000 0.000000
-0.000000 -0.000000 0.000000
-0.000000 -0.000000 0.000000
-0.000000 -0.000000 0.000000
-0.000000 -0.000000 0.000000
-0.000000 -0.000000 0.000000
-0.000000 -0.000000 0.000000
-0.000000 -0.000000 0.000000
-0.000000 -0.000000 0.000000
-0.000000 -0.000000 0.000000
-0.000000 -0.000000 0.000000
-0.000000 -0.000000 0.000000
-0.000000 -0.000000 0.000000
-0.000000 -0.000000 0.000000
-0.000000 0.000000 0.000000
-0.000000 0.000000 0.000000
-0.000000 0.000000 0.000000
-0.000000 0.000000 0.000000
-0.000000 0.000000 0.000000
-0.000000 0.000000 0.000000
-0.000000 0.000000 0.000000
-0.000000 0.000000 0.000000
-0.000000 0.000000 0.000000
-0.000000 0.000000 0.000000
-0.000000 0.000000 0.000000
-0.000000 0.000000 0.000000
-0.000000 0.000000 0.000000
-0.000000 0.000000 0.000000
-0.000000 0.000000 0.000000
-0.000000 0.000000 0.000000
-0.000000 0.000000 0.000000
-0.000000 0.000000 0.000000
-0.000000 0.000000 0.000000
-0.000000 0.000000 0.000000
-0.000000 0.000000 0.000000
-0.000000 0.000000 0.000000
-0.000000 0.000000 0.000000
-0.000000 0.000000 0.000000
-0.000000 0.000000 0.000000
-0.000000 0.000000 0.000000
-0.000000 0.000000 0.000000
-0.000000 0.000000 0.000000
-0.000000 0.000000 0.000000
-0.000000 0.000000 0.000000
-0.000000 0.000000 0.000000
-0.000000 0.000000 0.000000
-0.000000 0.000000 0.000000
-0.000000 0.000000 0.000000
-0.000000 0.000000 0.000000
-0.000000 0.000000 0.000000
-0.000000 0.000000 0.000000
-0.000000 0.000000 0.000000
-0.000000 0.000000 0.000000
-0.000000 0.000000 0.000000
-0.000000 0.000000 0.000000
-0.000000 0.000000 0.000000
-0.000000 0.000000 0.000000
-0.000000 0.000000 0.000000
-0.000000 0.000000 0.000000
-0.000000 0.000000 0.000000
-0.000000 0.000000 0.000000
-0.000000 0.000000 0.000000
-0.000000 0.000000 0.000000
-0.000000 0.000000 0.000000
-0.000000 0.000000 0.000000
-0.000000 0.000000 0.000000
-0.000000 0.000000 0.000000
-0.000000 0.000000 0.000000
-0.000000 0.000000 0.000000
-0.000000 0.000000 0.000000
-0.000000 0.000000 0.000000
-0.000000 0.000000 0.000000
-0.000000 0.000000 0.000000
-0.000000 0.000000 0.000000
-0.000000 0.000000 0.000000
-0.000000 0.000000 0.000000
-0.000000 0.000000 0.000000
-0.000000 0.000000 0.000000
-0.000000 0.000000 0.000000
-0.000000 0.000000 0.000000
-0.000000 0.000000 0.000000
-0.000000 0.000000 0.000000
-0.000000 0.000000 0.000000
-0.000000 0.000000 0.000000
-0.000000 0.000000 0.000000
-5.148664 2.432997 1.070243
-5.154926 2.474757 1.074543
-5.152026 2.512375 1.077051
-5.145330 2.548304 1.078842
-5.133992 2.582037 1.079738
-5.125939 2.617515 1.081350
-5.115023 2.651634 1.082425
-5.111718 2.689838 1.085112
-5.115078 2.731808 1.089233
-5.106871 2.767829 1.091024
-5.108759 2.809538 1.094965
-5.110327 2.851374 1.098907
-5.117567 2.896726 1.104102
-5.106523 2.931990 1.105535
-5.112244 2.977126 1.110551
-5.114213 3.020441 1.114851
-5.104870 3.057323 1.116821
-5.097788 3.095735 1.119329
-5.093779 3.136238 1.122554
-5.102818 3.185140 1.128645
-5.088168 3.219546 1.129720
-5.079912 3.258140 1.132228
-5.075500 3.299433 1.135632
-5.072413 3.341877 1.139394
-5.069816 3.384953 1.143335
-5.070139 3.430326 1.147993
-5.064415 3.471938 1.151396
-5.063220 3.516975 1.155875
-5.063271 3.563260 1.160712
-5.058938 3.606822 1.164653
-5.054260 3.650465 1.168594
-5.061148 3.702897 1.175223
-5.054933 3.746180 1.178985
-5.042082 3.784802 1.181314
-5.037563 3.829955 1.185613
-5.037356 3.878796 1.190988
-5.036739 3.927777 1.196362
-5.028760 3.971410 1.200124
-5.022740 4.016935 1.204424
-5.018644 4.064392 1.209260
-5.024045 4.120058 1.216426
-5.020623 4.169030 1.221622
-5.012270 4.214317 1.225742
-5.005797 4.261570 1.230400
-5.005640 4.314682 1.236670
-4.999830 4.363424 1.241686
-4.987710 4.407046 1.245269
-4.986976 4.461176 1.251718
-4.982847 4.512821 1.257451
-4.976820 4.563253 1.262825
-4.973247 4.616457 1.268916
-4.969924 4.670462 1.275186
-4.971828 4.730023 1.282889
-4.972478 4.789099 1.290413
-4.970475 4.846301 1.297400
-4.964456 4.900202 1.303491
-4.960745 4.956992 1.310299
-4.963441 5.020916 1.318898
-4.956601 5.075908 1.325168
-4.946539 5.128173 1.330721
-4.939416 5.184066 1.337170
-4.935164 5.243645 1.344515
-4.933716 5.306968 1.352756
-4.924355 5.362499 1.359026
-4.918463 5.422486 1.366371
-4.884442 5.451831 1.366192
-4.826771 5.454442 1.359564
-4.768604 5.455812 1.352756
-4.708675 5.454439 1.345411
-4.645751 5.448796 1.337170
-4.591948 5.453121 1.331438
-4.532604 5.450185 1.324093
-4.477843 5.452048 1.318002
-4.424469 5.454973 1.312269
-4.354620 5.436720 1.301700
-4.294320 5.429390 1.293817
-4.225188 5.409897 1.283248
-4.173285 5.411572 1.277694
-4.119137 5.409685 1.271424
-4.066352 5.408910 1.265512
-0.227918 0.308927 0.103215
-0.226019 0.310320 0.103215
-0.225264 0.313295 0.103574
-0.219334 0.309067 0.102319
-0.215166 0.307191 0.101603
-0.213277 0.308506 0.101603
-0.209709 0.307376 0.101065
-0.207267 0.307842 0.100886
-0.207015 0.311561 0.101424
-0.205100 0.312826 0.101424
-0.203176 0.314078 0.101424
-0.201777 0.316147 0.101603
-0.198780 0.315717 0.101245
-0.196839 0.316931 0.101245
-0.194891 0.318133 0.101245
-0.193446 0.320163 0.101424
-0.189960 0.318813 0.100886
-0.188000 0.319973 0.100886
-0.186529 0.321970 0.101065
-0.000000 0.000000 0.000000
-0.000000 0.000000 0.000000
-0.000000 0.000000 0.000000
-0.000000 0.000000 0.000000
-0.000000 0.000000 0.000000
-0.000000 0.000000 0.000000
-0.000000 0.000000 0.000000
-0.000000 0.000000 0.000000
-0.000000 0.000000 0.000000
-0.000000 0.000000 0.000000
-0.000000 0.000000 0.000000
-0.000000 0.000000 0.000000
-0.000000 0.000000 0.000000
-0.000000 0.000000 0.000000
-0.000000 0.000000 0.000000
-0.000000 0.000000 0.000000
-0.000000 0.000000 0.000000
-0.000000 0.000000 0.000000
-0.000000 0.000000 0.000000
-0.000000 0.000000 0.000000
-0.000000 0.000000 0.000000
-0.000000 0.000000 0.000000
-0.000000 0.000000 0.000000
-0.000000 0.000000 0.000000
-0.000000 0.000000 0.000000
-0.000000 0.000000 0.000000
-0.000000 0.000000 0.000000
-0.000000 0.000000 0.000000
-0.000000 0.000000 0.000000
-0.121789 0.343264 0.099632
-0.000000 0.000000 0.000000
-0.000000 0.000000 0.000000
-0.118283 0.353836 0.101245
-0.119510 0.364829 0.103215
-0.117269 0.365555 0.103215
-0.116215 0.370019 0.103932
-0.117153 0.381060 0.105902
-0.115671 0.384596 0.106440
-0.116112 0.394728 0.108231
-0.116707 0.405826 0.110202
-0.114753 0.408427 0.110560
-0.113559 0.413864 0.111456
-0.103562 0.387013 0.106261
-0.090883 0.348642 0.098916
-0.000000 0.000000 0.000000
-0.000000 0.000000 0.000000
-0.000000 0.000000 0.000000
-0.000000 0.000000 0.000000
-0.000000 0.000000 0.000000
-0.000000 0.000000 0.000000
-0.000000 0.000000 0.000000
-0.000000 0.000000 0.000000
-0.000000 0.000000 0.000000
-0.000000 0.000000 0.000000
-0.000000 0.000000 0.000000
-0.000000 0.000000 0.000000
-0.000000 0.000000 0.000000
-0.000000 0.000000 0.000000
-0.000000 0.000000 0.000000
-0.000000 0.000000 0.000000
-0.000000 0.000000 0.000000
-0.000000 0.000000 0.000000
-0.000000 0.000000 0.000000
-0.000000 0.000000 0.000000
-0.046473 0.366211 0.100528
-0.000000 0.000000 0.000000
-0.041630 0.363822 0.099991
-0.039724 0.367004 0.100528
-0.037574 0.368219 0.100707
-0.035023 0.365506 0.100170
-0.032871 0.366693 0.100349
-0.030705 0.367868 0.100528
-0.028448 0.368050 0.100528
-0.026189 0.368217 0.100528
-0.024130 0.371316 0.101065
-0.021851 0.371457 0.101065
-0.019571 0.371584 0.101065
-0.017388 0.373662 0.101424
-0.015181 0.375728 0.101782
-0.012949 0.377780 0.102140
-0.010630 0.377852 0.102140
-0.008312 0.377911 0.102140
-0.005974 0.376971 0.101961
-0.003636 0.375033 0.101603
-0.001334 0.375048 0.101603
0.000966 0.376033 0.101782
0.003274 0.376020 0.101782
0.005592 0.376977 0.101961
0.007888 0.375952 0.101782
0.010218 0.376880 0.101961
0.012501 0.375826 0.101782
0.014771 0.374759 0.101603
0.016986 0.372696 0.101245
0.019225 0.371602 0.101065
0.021344 0.368530 0.100528
0.023425 0.365446 0.099991
0.025470 0.362351 0.099453
0.027764 0.363169 0.099632
0.030615 0.370837 0.101065
0.033309 0.375544 0.101961
0.035703 0.376312 0.102140
0.038395 0.380002 0.102857
0.040929 0.381717 0.103215
0.043702 0.385370 0.103932
0.046408 0.388026 0.104469
0.049028 0.389687 0.104828
0.051544 0.390355 0.105007
0.053410 0.386131 0.104290
0.055779 0.385796 0.104290
0.058001 0.384474 0.104111
0.060209 0.383138 0.103932
0.063026 0.385676 0.104469
0.065715 0.387223 0.104828
0.068593 0.389720 0.105365
0.071156 0.390261 0.105544
0.073909 0.391751 0.105902
0.076496 0.392256 0.106082
0.079285 0.393710 0.106440
0.081896 0.394180 0.106619
0.085330 0.398483 0.107515
0.088610 0.401797 0.108231
0.092579 0.407966 0.109485
0.095743 0.410266 0.110023
0.099166 0.413501 0.110739
0.101933 0.413840 0.110918
0.104709 0.414161 0.111098
0.107493 0.414464 0.111277
0.110034 0.413797 0.111277
0.112571 0.413114 0.111277
0.115104 0.412415 0.111277
0.117097 0.409808 0.110918
0.118515 0.405301 0.110202
0.118765 0.397020 0.108769
0.000000 0.000000 0.000000
0.000000 0.000000 0.000000
0.000000 0.000000 0.000000
0.000000 0.000000 0.000000
0.000000 0.000000 0.000000
0.000000 0.000000 0.000000
0.000000 0.000000 0.000000
0.000000 0.000000 0.000000
0.000000 0.000000 0.000000
0.000000 0.000000 0.000000
0.000000 0.000000 0.000000
0.000000 0.000000 0.000000
0.000000 0.000000 0.000000
0.000000 0.000000 0.000000
0.000000 0.000000 0.000000
0.000000 0.000000 0.000000
0.000000 0.000000 0.000000
0.230103 0.543830 0.140836
0.000000 0.000000 0.000000
0.000000 0.000000 0.000000
0.000000 0.000000 0.000000
0.000000 0.000000 0.000000
0.000000 0.000000 0.000000
0.000000 0.000000 0.000000
0.000000 0.000000 0.000000
0.000000 0.000000 0.000000
0.249424 0.509076 0.136536
0.252543 0.507536 0.136536
0.256536 0.507734 0.136895
0.000000 0.000000 0.000000
0.000000 0.000000 0.000000
0.266296 0.503797 0.137074
0.276332 0.515172 0.139761
0.000000 0.000000 0.000000
0.000000 0.000000 0.000000
0.000000 0.000000 0.000000
0.000000 0.000000 0.000000
0.000000 0.000000 0.000000
0.000000 0.000000 0.000000
2.854396 4.832939 1.055374
2.863278 4.780724 1.048029
2.919614 4.807639 1.057524
2.952152 4.794662 1.058599
2.986203 4.783969 1.060211
3.025493 4.781354 1.063615
3.071765 4.789204 1.069348
3.112350 4.787590 1.073110
3.148161 4.778262 1.075259
3.183975 4.768675 1.077409
3.226402 4.768608 1.081709
3.271173 4.771445 1.086725
3.310488 4.765830 1.089949
3.345895 4.754278 1.091920
3.381855 4.743273 1.094070
3.421838 4.737588 1.097474
3.471750 4.745091 1.103923
3.516613 4.745044 1.108760
3.559833 4.742264 1.113059
3.604936 4.741480 1.117896
3.650164 4.740321 1.122733
3.693093 4.735682 1.126853
3.734883 4.729148 1.130615
3.783489 4.730732 1.136348
3.817397 4.713545 1.137781
3.868701 4.717424 1.144231
3.920195 4.720850 1.150680
3.964280 4.714782 1.154979
4.014813 4.715843 1.161070
4.054591 4.703790 1.164116
4.089844 4.686236 1.165907
4.121127 4.664003 1.166624
4.188359 4.681897 1.177193
4.292282 4.739252 1.197616
4.349865 4.744012 1.205319
4.396291 4.735983 1.209977
4.442782 4.727562 1.214635
4.484588 4.713758 1.218039
4.539356 4.713084 1.224846
4.598404 4.716141 1.232728
4.648676 4.709547 1.238282
4.694869 4.698335 1.242761
4.745994 4.691576 1.248493
4.796509 4.683678 1.254047
4.842149 4.670555 1.258346
4.915582 4.683518 1.269633
4.982907 4.689686 1.279306
5.047611 4.692522 1.288264
5.098044 4.681429 1.293638
5.149260 4.670554 1.299192
5.206394 4.664478 1.306178
5.265120 4.659181 1.313523
5.326938 4.655928 1.321585
5.392637 4.655305 1.330542
5.443556 4.641282 1.335916
5.499772 4.631245 1.342545
5.591616 4.650264 1.357593
5.648170 4.638976 1.364221
5.709380 4.630886 1.371925
5.770701 4.622219 1.379628
5.817471 4.601374 1.383927
5.843268 4.563775 1.383390
5.842340 4.505601 1.376762
5.840135 4.447015 1.369954
5.841364 4.391583 1.364042
5.833446 4.329853 1.356160
5.823403 4.267223 1.347919
5.824769 4.213531 1.342366
5.824094 4.158841 1.336454
5.823773 4.104885 1.330721
5.814935 4.045470 1.323197
5.803156 3.984648 1.315135
5.794922 3.926884 1.307970
5.800100 3.878671 1.303849
5.794232 3.823498 1.297400
5.796974 3.774449 1.292921
5.793540 3.721788 1.287189
5.798818 3.675107 1.283427
5.791231 3.620676 1.276978
5.785707 3.568027 1.271066
5.787320 3.520185 1.266766
5.785191 3.470434 1.261750
5.782669 3.420842 1.256734
5.775509 3.368932 1.250822
5.774753 3.321165 1.246344
5.766783 3.269652 1.240432
5.755823 3.216921 1.233983
5.754774 3.170147 1.229683
5.747317 3.120220 1.224130
5.745536 3.073755 1.219830
5.746884 3.029265 1.216247
5.754887 2.988503 1.214097
5.740711 2.936552 1.207469
5.738415 2.891087 1.203349
5.734897 2.845325 1.199049
5.719543 2.794098 1.192421
5.718849 2.750420 1.188838
5.717834 2.706856 1.185255
5.710260 2.660498 1.180418
5.720217 2.622539 1.179164
5.694055 2.568371 1.170744
5.698017 2.528195 1.168415
5.715226 2.493972 1.168774
6.010671 2.579172 1.224309
6.155998 2.596948 1.249926
6.235428 2.585516 1.262467
6.314036 2.572834 1.274828
6.405506 2.564406 1.289697
6.491615 2.552789 1.303491
6.605351 2.550849 1.322660
6.709186 2.543769 1.339858
6.791973 2.527614 1.352935
6.912699 2.524381 1.373358
7.011410 2.511793 1.389481
7.096301 2.493193 1.402917
7.247265 2.496405 1.429072
7.333285 2.475818 1.442687
7.466956 2.470033 1.465439
7.606443 2.464520 1.489265
7.664557 2.431492 1.497506
7.864419 2.441916 1.532797
7.949852 2.415073 1.546233
4.303635 1.278042 0.850790
4.241485 1.231296 0.837533
4.213943 1.195305 0.830905
5.606286 1.553545 1.092637
5.610015 1.517574 1.091562
5.627782 1.485384 1.093174
5.623452 1.447389 1.090666
5.615052 1.408545 1.087441
5.613076 1.371494 1.085471
5.613729 1.335204 1.084038
5.613190 1.298736 1.082425
5.606657 1.261029 1.079738
5.600833 1.223661 1.077230
5.601499 1.187841 1.075976
5.597119 1.151068 1.073826
5.588639 1.113624 1.070960
5.588605 1.078006 1.069706
5.593180 1.043334 1.069348
5.585922 1.006549 1.066840
5.574547 0.969219 1.063615
5.575537 0.934182 1.062719
5.580193 0.899797 1.062540
5.584637 0.865390 1.062361
5.581084 0.829803 1.060749
5.562695 0.792208 1.056449
2.505605 0.340512 0.493753
2.569109 0.333129 0.505039
5.524588 0.683272 1.046955
5.534539 0.650051 1.048029
5.539401 0.616188 1.048208
5.558733 0.583835 1.051075
3.019663 0.297897 0.585834
3.026332 0.279818 0.586729
3.032892 0.261668 0.587625
3.036402 0.243211 0.587983
2.820029 0.208390 0.548213
0.000000 0.000000 0.000000
2.797826 0.172246 0.543734
2.788025 0.154473 0.541764
2.769268 0.136387 0.538181
2.754326 0.118708 0.535315
2.739273 0.101217 0.532448
2.709359 0.083455 0.526895
2.694083 0.066435 0.524028
2.672800 0.049493 0.520087
0.000000 0.000000 0.000000
2.607292 0.016249 0.508084
2.390901 0.000133 0.468672
2.299363 -0.014026 0.452012
2.309071 -0.028250 0.453803
2.310822 -0.042453 0.454162
2.313468 -0.056702 0.454699
2.314060 -0.070925 0.454878
2.312598 -0.085087 0.454699
2.312033 -0.099275 0.454699
2.312363 -0.113508 0.454878
2.314570 -0.127855 0.455416
2.317670 -0.142294 0.456132
2.319698 -0.156710 0.456670
2.311824 -0.170437 0.455416
2.310735 -0.184619 0.455416
2.311519 -0.198962 0.455774
2.307316 -0.212872 0.455236
2.304987 -0.226929 0.455057
2.318229 -0.242596 0.457744
2.300073 -0.254982 0.454699
2.300420 -0.269318 0.455057
2.301653 -0.283788 0.455595
2.298893 -0.297779 0.455416
2.301897 -0.312539 0.456311
2.302858 -0.327070 0.456849
2.297889 -0.340763 0.456311
2.314229 -0.357702 0.459715
2.285763 -0.367690 0.454878
2.304813 -0.385266 0.458819
2.941260 -0.509893 0.576876
2.992306 -0.537653 0.586908
2.990885 -0.556363 0.587267
2.990313 -0.575260 0.587804
2.994447 -0.595129 0.589237
2.995559 -0.614478 0.590133
2.991732 -0.632847 0.590133
2.989715 -0.651610 0.590491
2.972220 -0.666932 0.587983
2.956568 -0.682506 0.585834
2.948495 -0.699727 0.585117
2.837083 -0.691746 0.565053
2.931096 -0.733710 0.583505
2.439562 -0.626802 0.491961
2.461360 -0.648515 0.496798
0.000000 -0.000000 0.000000
2.469338 -0.683123 0.499844
2.448059 -0.693443 0.496619
2.443758 -0.708451 0.496619
2.965753 -0.879278 0.596582
2.966893 -0.899454 0.597836
2.968837 -0.919969 0.599270
2.968765 -0.939947 0.600344
2.968559 -0.959960 0.601419
2.968218 -0.980005 0.602494
2.966811 -0.999768 0.603390
2.964343 -1.019232 0.604106
2.956176 -1.036751 0.603748
2.956245 -1.057187 0.605002
2.800867 -1.021111 0.576160
0.000000 -0.000000 0.000000
0.000000 -0.000000 0.000000
0.000000 -0.000000 0.000000
0.000000 -0.000000 0.000000
0.000000 -0.000000 0.000000
0.000000 -0.000000 0.000000
0.000000 -0.000000 0.000000
0.000000 -0.000000 0.000000
0.000000 -0.000000 0.000000
2.692388 -1.173271 0.568098
0.000000 -0.000000 0.000000
0.000000 -0.000000 0.000000
0.000000 -0.000000 0.000000
2.692225 -1.252677 0.574010
2.664027 -1.259509 0.569890
2.672215 -1.283492 0.573114
2.705854 -1.320123 0.581534
2.694176 -1.334955 0.580818
2.688571 -1.352787 0.581355
2.686354 -1.372389 0.582609
2.680504 -1.390204 0.583146
2.677147 -1.409373 0.584221
2.673657 -1.428553 0.585296
2.667436 -1.446337 0.585834
2.658511 -1.462677 0.585834
2.653783 -1.481358 0.586729
2.648068 -1.499551 0.587446
2.643937 -1.518709 0.588521
2.646472 -1.541832 0.591029
0.000000 -0.000000 0.000000
2.640014 -1.581772 0.593716
2.638669 -1.603046 0.595507
2.645541 -1.629520 0.599090
2.653855 -1.657179 0.603032
2.627839 -1.663440 0.599628
2.691296 -1.726790 0.615572
2.900088 -1.885861 0.663225
2.897500 -1.909572 0.665195
2.894730 -1.933322 0.667166
2.882813 -1.951048 0.667166
2.874845 -1.971480 0.668061
2.268722 -1.576670 0.536389
2.266247 -1.595655 0.538002
2.885339 -2.057751 0.678631
2.885421 -2.084630 0.681497
2.877341 -2.105780 0.682572
2.868318 -2.126324 0.683468
2.859152 -2.146836 0.684364
2.852192 -2.169101 0.685797
2.845066 -2.191362 0.687230
2.838550 -2.214221 0.688842
2.834949 -2.239521 0.691171
2.828070 -2.262403 0.692784
2.824075 -2.287760 0.695112
2.817593 -2.311283 0.696904
2.815470 -2.338582 0.699770
2.805587 -2.359611 0.700845
2.791805 -2.377419 0.701024
2.784618 -2.400927 0.702816
2.772799 -2.420554 0.703532
2.763794 -2.442733 0.704965
2.757554 -2.467515 0.707115
2.748925 -2.490331 0.708727
2.751724 -2.523770 0.713206
2.741235 -2.545291 0.714460
0.610277 -0.574915 0.185981
0.602460 -0.574580 0.184906
0.594671 -0.574172 0.183831
0.591137 -0.577810 0.183831
0.583379 -0.577280 0.182756
0.578433 -0.579458 0.182398
0.572100 -0.580199 0.181681
0.565779 -0.580883 0.180964
0.554690 -0.576556 0.178994
0.546390 -0.574963 0.177740
0.533411 -0.568277 0.175232
0.513834 -0.554248 0.170932
0.504434 -0.550870 0.169320
0.491128 -0.543026 0.166633
0.477937 -0.535039 0.163946
0.468777 -0.531332 0.162333
0.462917 -0.531236 0.161617
0.456434 -0.530343 0.160721
0.448702 -0.527894 0.159467
0.444821 -0.529885 0.159288
0.440932 -0.531848 0.159109
0.438285 -0.535303 0.159288
0.434372 -0.537219 0.159109
0.429222 -0.537570 0.158571
0.424084 -0.537879 0.158034
0.415930 -0.534269 0.156601
0.410241 -0.533695 0.155884
0.408747 -0.538550 0.156421
0.398338 -0.531613 0.154272
0.391550 -0.529308 0.153197
0.384805 -0.526939 0.152122
0.376951 -0.522914 0.150689
0.374879 -0.526819 0.151047
0.369938 -0.526697 0.150510
0.366700 -0.528957 0.150510
0.364004 -0.532008 0.150689
0.361837 -0.535860 0.151047
0.360183 -0.540523 0.151585
0.356860 -0.542723 0.151585
0.353523 -0.544902 0.151585
0.350173 -0.547061 0.151585
0.345229 -0.546707 0.151047
0.340303 -0.546313 0.150510
0.337978 -0.550065 0.150868
0.334085 -0.551288 0.150689
0.328671 -0.549953 0.149972
0.326794 -0.554500 0.150510
0.320410 -0.551396 0.149435
0.319964 -0.558468 0.150510
0.313619 -0.555286 0.149435
0.313087 -0.562352 0.150510
0.313904 -0.572018 0.152122
0.309919 -0.573068 0.151943
0.305004 -0.572357 0.151405
0.301945 -0.575088 0.151585
0.297050 -0.574311 0.151047
0.293073 -0.575247 0.150868
0.288652 -0.575277 0.150510
0.284242 -0.575275 0.150151
0.282003 -0.579660 0.150689
0.277161 -0.578720 0.150151
0.276974 -0.587523 0.151585
0.274610 -0.591886 0.152122
0.268512 -0.588195 0.151047
0.265303 -0.590728 0.151226
0.264468 -0.598639 0.152480
0.263939 -0.607464 0.153913
0.260983 -0.610880 0.154272
0.257612 -0.613376 0.154451
0.254974 -0.617671 0.154988
0.251551 -0.620135 0.155167
0.251034 -0.629887 0.156780
0.249685 -0.637824 0.158034
0.246476 -0.641179 0.158392
0.244631 -0.648198 0.159467
0.240649 -0.649687 0.159467
0.236996 -0.652076 0.159646
0.231994 -0.650739 0.159109
0.228976 -0.654935 0.159646
0.226235 -0.660048 0.160363
0.226274 -0.673541 0.162692
0.220591 -0.670247 0.161796
0.216778 -0.672523 0.161975
0.212945 -0.674779 0.162154
0.208217 -0.674194 0.161796
0.203504 -0.673576 0.161438
0.199928 -0.676698 0.161796
0.194948 -0.675078 0.161258
0.190534 -0.675315 0.161079
0.186124 -0.675523 0.160900
0.181718 -0.675703 0.160721
